ncols 326
nrows 71
xllcorner -2171145
yllcorner 1558185
cellsize 30.0
NODATA_value None
596 605 606 603 604 617 648 661 661 661 662 661 664 656 649 654 650 641 642 642 639 634 633 642 640 640 638 636 635 632 638 647 650 647 632 636 640 650 647 636 632 627 636 636 629 631 637 639 649 650 652 653 648 647 644 639 636 634 633 637 636 638 643 644 653 654 655 660 659 655 656 648 648 654 658 670 673 673 674 672 669 672 673 672 678 665 654 650 647 651 651 647 640 636 635 632 627 617 610 604 608 605 604 612 605 609 614 619 630 631 625 630 628 625 633 629 626 632 627 636 639 640 655 656 673 695 697 698 705 706 708 708 704 706 705 699 709 710 701 702 713 718 719 720 723 729 736 756 762 762 770 768 772 759 761 772 777 789 799 805 812 824 823 828 848 858 866 872 882 897 897 897 910 915 924 937 943 939 936 930 918 930 924 915 910 907 907 914 923 933 942 956 966 977 999 1005 1014 1025 1025 1024 1026 1025 1028 1034 1037 1026 1024 1020 1016 1016 1020 1015 1012 1009 1007 1015 1020 1026 1029 1026 1028 1022 1027 1022 1005 1007 1011 1002 989 989 971 979 994 994 985 967 974 969 962 968 968 954 947 934 933 926 907 892 881 873 857 842 825 806 793 788 781 763 736 707 692 666 661 652 653 658 633 632 642 657 666 669 685 696 694 710 718 706 712 731 753 764 782 797 804 804 785 763 753 727 703 679 667 645 632 656 661 679 694 685 696 715 737 749 773 794 803 814 829 845 843 829 810 779 768 740 720 710 690 686 709 711 713 719 735 743
596 596 604 603 602 625 637 654 655 652 657 653 648 652 647 641 646 641 637 636 634 632 632 631 636 640 640 638 639 631 643 648 653 642 635 632 640 639 644 637 624 623 626 632 624 627 632 637 645 647 656 650 650 642 640 636 635 635 631 631 632 632 631 636 636 646 647 647 652 644 639 643 643 641 651 660 669 666 666 669 663 664 670 667 663 661 645 645 644 646 647 638 633 632 629 626 628 618 604 599 598 599 602 601 606 614 614 617 618 615 619 620 621 625 624 624 621 622 623 629 626 635 638 655 662 669 687 690 693 703 700 696 699 694 694 690 700 701 691 699 706 710 714 719 726 732 734 742 754 764 768 763 756 755 754 772 781 787 796 806 808 819 820 827 832 848 858 869 874 886 893 892 898 914 924 929 942 948 945 942 937 935 928 920 911 919 921 919 918 927 936 946 964 970 981 1000 1005 1013 1023 1021 1024 1028 1029 1035 1037 1040 1030 1027 1019 1015 1014 1013 1012 1008 1008 1015 1018 1025 1026 1027 1031 1032 1033 1032 1025 1017 1021 1018 1001 1001 991 995 1003 1008 984 996 987 981 987 979 972 947 928 923 911 910 898 891 879 867 862 848 832 800 791 770 761 747 736 705 673 668 678 685 672 677 686 663 674 688 688 703 696 708 722 726 731 738 732 743 765 778 796 797 808 801 785 761 739 714 703 686 661 639 634 659 677 685 705 719 719 729 744 761 773 794 814 830 833 849 852 830 820 799 769 759 730 708 698 688 705 720 720 723 731 747
592 593 599 596 599 616 646 650 647 648 645 646 640 640 644 638 635 638 639 636 631 629 627 624 625 636 638 634 635 629 634 643 640 639 628 627 636 632 631 633 627 617 622 621 621 622 629 636 644 647 655 651 641 639 634 625 630 631 633 628 624 626 626 621 629 629 630 637 635 634 628 628 638 637 639 652 651 650 656 652 659 657 654 660 655 644 642 641 641 645 644 633 624 620 622 621 617 617 610 600 594 594 598 596 601 613 613 614 616 613 615 614 616 622 617 614 614 613 617 624 621 623 633 639 650 661 667 684 687 689 694 691 686 688 687 686 689 683 688 708 713 716 725 732 727 729 737 746 752 763 768 765 754 748 761 771 778 790 793 801 815 816 815 822 828 836 850 857 863 878 884 889 894 899 918 928 933 946 953 955 946 950 933 916 921 930 930 934 926 928 934 942 952 970 974 986 1002 1010 1012 1019 1025 1029 1031 1033 1034 1036 1036 1028 1021 1020 1015 1014 1014 1010 1011 1015 1016 1018 1022 1022 1023 1028 1030 1030 1033 1032 1030 1029 1026 1007 1003 1007 1018 1011 1005 1003 1006 996 997 981 959 947 922 907 889 881 890 877 870 861 852 841 834 816 790 764 753 735 719 709 678 701 699 702 708 699 699 679 682 698 706 712 722 726 733 742 745 749 756 761 778 786 801 810 815 810 786 758 750 735 707 687 675 645 647 658 680 705 721 729 742 748 757 774 783 804 815 834 851 859 858 846 818 807 784 758 736 725 704 693 709 716 729 733 737 748
583 591 595 587 600 611 637 645 640 641 640 636 633 632 633 631 628 623 633 632 629 629 620 615 617 619 629 628 624 629 630 627 629 625 621 620 620 623 625 628 622 616 613 615 614 614 623 629 637 641 642 643 635 631 627 620 620 627 623 623 621 614 619 615 612 620 622 622 626 615 619 621 625 633 632 627 640 640 639 639 647 651 648 645 649 644 642 640 640 641 637 624 622 619 618 618 615 605 601 597 589 591 591 595 603 608 611 612 612 612 613 612 614 614 614 607 603 608 611 606 618 619 627 633 637 650 663 674 685 685 682 685 682 680 678 672 666 679 689 708 717 724 729 734 736 732 735 749 759 762 767 755 743 745 760 768 774 779 789 806 813 815 813 817 823 828 840 851 857 865 881 880 888 897 904 922 931 940 950 954 962 954 946 920 930 937 939 938 941 935 942 945 949 959 975 986 991 1004 1014 1022 1024 1027 1031 1033 1035 1033 1031 1031 1027 1027 1025 1016 1015 1013 1012 1014 1015 1017 1017 1020 1021 1021 1024 1025 1025 1029 1030 1035 1036 1031 1015 1021 1026 1020 1018 1023 1015 1013 990 978 954 929 908 902 880 863 862 869 849 831 840 833 824 808 798 773 754 747 723 702 701 710 723 720 723 727 697 677 676 697 713 725 727 741 749 753 760 761 767 769 781 797 807 816 825 819 797 786 758 734 721 692 670 660 649 668 688 704 722 739 746 764 774 789 797 803 827 849 855 869 859 852 834 802 776 765 739 722 712 698 706 720 729 744 750 763
579 585 580 582 594 619 636 635 637 638 635 634 630 624 628 625 624 618 619 624 620 620 619 611 605 610 615 621 618 619 622 621 621 622 616 606 612 612 622 621 616 611 611 611 610 612 613 622 623 633 635 634 628 627 624 623 612 609 613 604 609 603 599 603 603 604 615 609 608 611 608 615 617 619 623 622 627 635 639 642 644 647 646 642 638 641 640 637 640 638 634 623 617 615 615 612 609 606 599 592 588 592 596 602 606 612 613 612 612 607 610 611 606 608 605 603 601 600 605 599 610 623 627 631 637 639 643 665 680 682 680 677 677 676 668 665 661 673 698 706 714 718 722 732 731 728 739 746 749 758 750 749 739 748 753 761 765 778 786 800 811 805 811 813 819 825 837 841 854 856 868 882 884 892 902 910 923 933 937 952 957 964 947 938 937 947 957 945 948 955 952 950 956 961 966 975 991 1003 1011 1019 1020 1025 1031 1036 1037 1036 1035 1038 1039 1035 1032 1026 1018 1016 1015 1014 1015 1016 1017 1018 1019 1020 1021 1022 1023 1023 1027 1031 1035 1039 1038 1030 1035 1036 1028 1032 1029 1020 997 964 938 933 916 914 906 872 847 841 841 821 804 817 812 803 791 782 762 740 715 703 711 732 733 740 749 726 715 684 682 701 714 731 742 747 756 762 768 772 774 781 787 803 821 833 829 831 818 783 771 740 716 709 683 660 655 672 690 706 717 735 755 772 779 794 810 828 830 851 871 873 869 855 828 819 786 766 751 733 722 704 708 720 736 755 764 772
573 581 576 578 605 618 630 632 635 635 632 628 628 622 615 620 620 616 615 614 616 617 612 613 608 598 609 614 610 612 612 618 618 617 615 607 597 604 608 606 609 608 608 606 605 609 612 613 618 618 619 622 619 620 614 610 609 600 595 594 586 584 589 590 593 597 596 600 604 601 603 602 603 615 614 622 633 636 641 647 648 648 645 643 637 633 636 635 635 636 626 617 614 610 606 610 605 602 600 594 588 597 600 605 612 616 615 615 613 611 603 605 604 608 605 598 597 596 593 600 606 617 628 632 633 635 638 649 677 681 678 676 672 669 663 656 660 681 688 696 697 700 713 716 721 723 725 740 737 736 737 734 741 752 757 762 766 776 789 791 789 804 813 815 816 823 834 835 841 857 862 871 887 893 893 902 916 928 933 944 959 964 963 942 950 958 964 962 952 962 971 963 965 970 968 980 985 999 1005 1013 1015 1024 1030 1031 1033 1033 1035 1041 1043 1044 1039 1034 1027 1018 1017 1016 1015 1016 1018 1020 1025 1026 1023 1023 1021 1023 1024 1028 1029 1036 1044 1047 1047 1043 1045 1040 1030 1007 986 972 968 950 951 939 907 876 850 827 808 797 790 780 793 791 781 771 749 741 715 716 717 739 753 755 758 746 716 697 683 699 721 730 744 753 759 763 774 779 784 789 801 820 826 842 851 834 824 800 769 758 745 722 698 674 654 673 689 704 719 744 753 770 787 802 811 832 854 853 875 885 869 862 843 815 796 776 763 746 730 707 715 729 737 756 779 788
566 567 571 575 597 624 626 626 631 629 630 625 620 616 611 610 612 611 603 607 607 613 608 603 604 594 601 610 609 597 610 612 616 615 611 610 597 591 604 602 600 603 602 603 605 607 609 609 609 611 612 610 608 601 602 593 592 594 591 589 585 584 580 585 587 591 591 594 598 599 598 599 598 597 612 619 629 636 640 646 647 642 642 642 637 629 628 629 630 628 622 606 600 604 602 603 603 600 596 591 586 595 606 613 614 616 614 613 614 611 601 596 606 610 610 598 596 593 590 596 605 614 619 630 630 629 632 652 662 675 679 675 670 665 655 647 651 669 683 684 689 692 699 708 705 714 717 719 727 725 724 732 736 739 749 749 769 767 771 782 802 808 816 823 827 823 829 837 842 852 862 864 866 884 891 903 910 925 936 942 954 967 967 960 962 970 978 972 975 972 972 977 976 980 982 976 985 988 997 1002 1010 1018 1017 1027 1026 1029 1037 1044 1046 1048 1047 1045 1035 1029 1019 1018 1017 1017 1022 1025 1029 1034 1034 1027 1025 1024 1024 1025 1028 1033 1036 1047 1049 1047 1046 1043 1025 1015 994 981 983 984 960 933 919 887 867 831 825 807 781 775 763 776 765 757 746 725 715 728 746 754 760 765 765 750 740 707 695 694 716 738 751 755 763 771 779 792 795 807 815 824 846 854 858 851 823 812 791 764 759 748 711 687 665 667 682 701 708 727 755 766 776 802 825 833 857 869 881 886 884 860 844 836 807 787 777 751 732 710 717 732 750 762 784 803
557 554 554 579 591 617 621 622 622 625 620 618 615 608 605 604 601 605 596 593 599 596 596 599 592 591 594 600 601 594 598 608 609 608 607 603 598 594 588 596 594 592 597 597 597 604 606 608 607 606 605 600 591 591 589 588 591 591 591 590 593 585 579 578 584 586 588 592 597 600 595 593 593 591 601 620 623 624 640 643 645 642 634 640 636 629 626 625 616 616 605 602 594 590 597 600 597 597 596 586 587 600 605 611 613 616 612 608 614 612 608 592 595 610 608 593 591 594 583 599 604 607 615 617 624 624 628 639 649 662 676 674 665 655 650 642 651 659 673 678 674 684 687 697 699 698 708 712 712 722 728 734 738 744 752 755 756 771 788 791 799 804 807 819 825 825 831 836 843 852 850 858 870 883 891 904 920 926 935 948 958 965 972 975 980 977 989 989 982 970 959 973 974 981 985 986 981 985 992 999 1007 1014 1015 1017 1023 1028 1031 1042 1047 1049 1050 1050 1043 1037 1034 1021 1019 1019 1023 1030 1031 1037 1038 1034 1029 1026 1024 1025 1026 1030 1034 1036 1046 1042 1039 1041 1025 1009 1003 1013 999 985 974 943 919 899 882 871 849 825 814 781 762 754 755 735 729 720 730 752 755 767 770 774 779 760 740 732 703 700 717 736 750 760 765 776 790 804 809 814 829 847 848 867 866 861 844 814 797 793 770 747 736 699 671 680 690 706 714 730 739 763 791 804 826 848 867 873 878 887 889 879 854 830 819 792 777 760 742 718 726 734 756 779 802 813
534 533 544 563 603 612 610 614 612 607 613 607 602 605 600 598 593 593 596 589 587 587 589 589 588 579 587 596 596 589 591 594 601 601 599 601 600 592 584 583 586 585 584 589 589 592 601 599 603 602 594 588 587 587 587 588 588 591 592 592 592 584 576 576 580 586 588 589 591 587 590 589 586 591 599 611 618 621 623 636 633 630 629 638 631 627 625 623 608 601 598 588 588 585 593 597 595 593 591 579 584 598 596 605 605 603 605 603 604 606 603 594 598 598 598 596 581 588 580 590 604 605 605 610 610 609 622 625 637 653 662 668 664 655 641 636 640 654 660 667 663 670 683 688 693 703 706 714 717 719 725 734 746 754 758 769 769 771 779 788 790 796 800 812 820 819 824 831 834 842 855 866 872 883 895 904 918 928 941 947 959 971 974 982 988 994 996 999 990 966 957 951 963 966 981 986 988 982 988 995 1004 1010 1010 1016 1016 1021 1030 1031 1040 1043 1046 1049 1044 1042 1037 1034 1028 1021 1022 1027 1031 1038 1041 1035 1029 1027 1027 1027 1026 1027 1031 1032 1034 1041 1036 1032 1026 1012 1017 1011 1001 985 960 934 924 902 875 869 858 827 809 800 774 755 744 739 742 749 742 756 775 778 780 780 785 780 753 737 713 704 714 734 744 753 762 783 789 804 816 832 835 855 870 868 879 870 846 840 811 797 787 758 730 702 680 678 696 706 713 738 757 769 791 814 832 845 864 879 881 882 892 876 867 840 823 803 786 764 742 724 730 745 767 779 803 826
525 527 541 572 590 603 599 598 605 602 598 602 598 593 593 589 589 586 583 591 588 578 580 584 579 572 570 588 588 581 583 586 586 594 592 592 596 591 576 578 579 583 582 580 583 585 589 595 594 594 584 582 585 584 584 587 586 585 591 584 574 578 575 572 577 576 585 586 581 583 579 580 583 582 600 607 609 615 618 620 626 620 630 636 625 622 621 616 606 594 590 582 576 575 586 589 591 587 582 578 594 594 590 590 586 595 595 601 601 599 596 589 587 585 589 582 578 574 581 589 605 604 603 601 604 601 601 617 629 648 649 651 658 651 645 632 639 641 651 648 662 667 669 679 689 700 713 714 710 715 726 738 742 751 763 768 776 780 782 783 787 795 800 810 818 816 821 825 839 847 850 862 870 875 890 901 918 924 935 950 956 967 975 982 986 995 1000 1001 994 975 952 944 945 963 968 972 985 979 985 988 993 1008 1009 1008 1014 1017 1017 1024 1032 1038 1043 1039 1042 1042 1042 1037 1034 1030 1024 1028 1030 1036 1043 1034 1032 1033 1029 1029 1029 1027 1027 1029 1028 1029 1032 1027 1019 1012 1007 997 985 960 948 931 906 900 879 849 834 823 799 782 774 769 763 771 757 762 770 769 778 789 789 795 801 782 763 745 719 712 717 741 756 761 767 782 792 810 816 834 854 861 878 890 883 878 869 845 835 803 777 749 736 706 682 690 700 722 733 743 763 774 793 809 829 852 862 879 889 887 892 896 870 852 834 807 781 766 748 733 739 746 764 788 812 826
513 528 536 566 594 591 589 593 591 596 593 589 590 586 584 584 580 575 578 582 587 580 571 576 574 570 566 569 575 569 568 576 577 580 586 587 584 584 579 564 576 576 580 578 580 584 583 580 584 581 578 579 579 582 588 580 581 574 569 568 564 559 563 558 567 570 573 580 579 571 574 575 573 582 586 599 606 612 614 613 610 616 628 628 617 615 614 603 596 593 586 581 576 572 577 588 589 581 571 580 596 592 584 581 580 586 587 594 600 602 601 595 594 583 577 574 567 570 585 601 608 607 603 598 597 596 596 600 618 620 620 644 643 646 630 625 637 637 638 642 649 650 658 673 684 693 695 704 701 718 725 735 741 746 753 765 771 776 784 786 788 796 802 803 809 802 817 824 825 837 844 850 864 874 883 896 906 927 932 944 959 968 970 980 988 990 995 987 983 974 951 937 943 944 958 968 970 979 974 982 987 998 1001 1001 1003 1012 1014 1017 1028 1034 1038 1036 1041 1043 1042 1042 1038 1036 1036 1031 1038 1042 1044 1045 1037 1037 1036 1032 1033 1032 1028 1026 1025 1025 1025 1021 1022 1023 1003 997 989 961 937 924 901 879 860 847 820 804 796 783 769 779 786 789 793 782 784 785 792 797 806 807 799 789 766 734 721 718 743 753 761 777 785 801 808 809 830 837 854 868 886 893 895 879 873 859 826 797 784 753 735 702 689 701 716 730 752 762 784 793 797 823 826 849 872 886 892 901 904 895 883 856 826 809 791 778 747 739 743 754 773 784 810 833
510 519 545 580 589 588 586 587 587 583 585 582 577 580 578 578 575 569 567 576 575 573 567 563 566 567 564 567 564 558 563 560 568 571 574 580 579 574 570 561 564 571 565 570 571 574 579 576 575 577 576 577 581 581 586 572 563 562 559 553 554 552 550 556 564 571 574 570 574 568 568 569 567 576 587 599 605 611 607 608 607 616 630 626 614 609 602 590 590 586 585 582 581 571 575 586 590 582 563 586 591 589 582 575 579 593 597 600 605 612 602 606 602 592 583 573 563 571 586 595 604 607 604 597 595 592 590 589 594 608 609 616 629 627 619 627 626 634 637 643 645 649 659 670 670 680 685 696 702 722 734 733 741 742 751 753 764 771 772 781 787 791 795 791 800 802 806 817 826 836 842 853 860 870 875 888 900 916 935 947 953 966 968 975 983 985 979 975 968 957 937 926 937 938 941 960 957 961 971 975 987 996 994 995 997 1001 1009 1014 1022 1030 1033 1029 1036 1035 1039 1039 1040 1041 1042 1043 1043 1040 1038 1046 1047 1041 1038 1038 1037 1037 1036 1029 1025 1024 1022 1020 1022 1012 1004 1004 992 984 950 926 904 883 869 832 826 815 794 778 773 789 799 807 805 806 809 797 804 809 819 817 796 772 760 733 723 746 749 767 777 796 805 812 825 828 829 845 861 866 882 898 898 882 866 843 829 800 785 777 754 727 691 701 732 750 779 792 798 816 824 829 852 864 872 891 902 916 922 899 875 864 836 828 809 787 764 739 751 757 769 790 801 828
504 523 535 573 581 578 581 580 575 577 569 563 569 567 570 570 568 569 561 564 569 565 559 557 559 563 558 555 557 557 557 557 556 559 568 569 571 566 564 555 556 552 558 554 557 563 566 571 571 572 575 577 577 575 567 560 560 557 552 549 544 545 546 549 561 567 566 566 560 565 564 562 568 579 585 596 607 608 605 602 610 613 620 616 612 605 592 586 585 584 582 582 581 572 578 582 588 575 558 562 583 574 575 576 592 599 600 598 610 613 613 612 612 600 586 576 561 563 577 593 591 600 601 595 594 593 584 584 585 586 599 604 607 609 598 613 614 624 634 638 640 648 650 650 664 675 680 693 708 720 734 737 739 739 745 752 752 759 772 783 789 790 780 794 802 810 820 823 833 846 847 847 857 861 869 883 899 918 924 935 953 959 965 969 976 982 976 955 954 947 929 913 917 931 940 939 948 950 961 977 983 982 985 983 990 1000 997 1007 1014 1021 1029 1021 1019 1027 1029 1036 1039 1041 1043 1042 1035 1036 1030 1039 1048 1044 1042 1042 1046 1044 1044 1042 1032 1027 1023 1019 1017 1000 989 985 987 979 957 938 918 902 884 862 840 813 801 781 796 812 806 813 817 812 816 818 821 828 827 811 799 770 746 730 729 753 772 784 793 804 822 831 836 840 834 844 860 876 883 902 898 876 865 842 829 818 799 787 763 745 713 722 767 781 788 814 822 826 844 859 858 883 899 906 914 924 927 919 886 873 864 845 814 790 767 757 750 765 773 787 808 832
500 515 543 562 573 565 565 572 566 559 559 557 554 559 555 559 555 551 556 557 557 561 557 549 553 553 555 548 545 554 552 552 552 552 560 564 562 561 557 557 551 547 546 551 555 556 561 565 570 569 568 573 568 562 562 558 554 554 544 541 538 540 545 546 547 558 556 555 558 555 559 555 560 576 585 589 604 600 598 600 602 613 614 610 608 598 593 585 583 578 579 576 574 566 568 581 581 574 555 554 558 570 577 586 589 586 595 592 594 607 614 616 616 605 594 580 564 563 569 567 585 595 595 594 587 585 587 574 577 577 580 592 599 594 588 592 594 619 639 634 637 634 642 649 654 671 679 682 701 714 733 734 733 742 744 744 751 758 762 774 780 776 780 787 798 803 813 826 838 842 852 850 853 859 870 887 894 906 924 935 940 955 953 962 972 978 959 949 927 928 920 897 914 915 921 928 928 950 955 966 980 976 974 981 986 988 992 1001 1007 1017 1021 1014 1011 1009 1024 1027 1028 1034 1032 1037 1031 1019 1026 1031 1035 1042 1044 1047 1051 1054 1052 1049 1043 1030 1028 1018 1012 1001 966 971 971 976 954 930 927 903 879 854 839 809 791 811 810 825 836 824 828 833 826 830 842 841 834 815 794 772 752 735 748 770 778 791 806 814 830 842 852 850 846 844 857 875 894 908 905 889 862 860 845 835 814 795 772 762 724 746 788 800 806 820 839 855 855 873 891 898 907 923 931 939 940 921 904 886 866 841 811 808 787 753 752 763 785 799 803 827
503 511 538 562 555 557 559 558 556 553 549 553 552 549 547 542 546 545 541 549 551 553 550 548 543 548 545 539 541 552 551 548 547 551 556 559 557 554 551 553 554 548 544 546 553 554 551 558 559 558 560 557 560 558 555 556 550 542 538 537 538 540 540 543 543 545 551 550 547 551 550 546 559 562 578 587 593 596 590 590 599 607 603 602 598 595 586 580 583 578 568 569 567 554 563 567 576 568 559 545 558 576 580 584 572 576 575 586 585 590 607 611 609 610 600 587 568 554 560 567 572 589 589 585 585 579 581 575 569 573 572 575 592 582 575 584 604 623 636 635 630 626 629 644 652 655 671 677 688 705 716 729 727 729 741 744 745 752 758 762 773 769 778 782 790 801 810 816 834 839 843 853 854 859 866 876 894 906 912 929 938 943 948 955 965 976 964 939 928 910 900 889 895 908 916 901 916 926 950 956 967 969 971 979 988 986 985 994 998 1014 1014 1007 1000 1003 1006 1018 1020 1017 1025 1017 1020 1013 1010 1026 1029 1040 1047 1049 1050 1052 1051 1047 1046 1037 1027 1017 997 991 958 943 957 952 947 924 898 886 873 850 822 802 811 818 842 851 852 856 844 847 851 847 851 835 818 797 787 771 748 739 742 757 779 784 792 816 830 838 850 857 857 852 857 881 892 911 905 888 879 874 864 847 824 801 773 761 753 777 790 813 825 840 850 864 882 893 902 914 923 932 945 953 954 946 914 892 866 863 849 810 796 771 758 774 787 807 825 821
495 518 543 550 550 551 550 553 548 547 547 543 545 537 537 538 534 532 535 540 547 549 547 543 541 535 538 533 529 546 545 543 541 543 554 555 553 551 548 550 554 553 547 542 545 551 549 546 549 553 554 556 554 554 553 549 544 540 535 534 536 535 538 539 541 539 539 543 540 538 540 540 546 560 568 581 585 583 587 586 596 603 599 595 590 584 584 578 574 575 565 556 561 555 547 562 566 566 548 543 556 570 569 572 567 563 568 570 578 589 596 604 602 602 605 594 581 559 550 556 575 578 588 583 578 574 574 570 568 570 565 568 570 575 575 586 601 613 624 630 627 618 625 628 645 652 659 669 677 687 703 710 707 721 724 736 739 747 751 754 755 765 775 787 793 795 805 816 820 834 843 853 858 860 867 875 882 899 912 916 932 939 941 950 958 964 960 941 929 912 902 879 888 891 906 895 896 915 926 949 959 958 965 981 987 988 981 982 991 998 996 995 990 998 1007 1010 1016 1009 1005 1006 1001 992 1001 1008 1030 1041 1044 1049 1051 1051 1050 1047 1042 1036 1014 1000 977 970 965 934 925 938 927 903 896 871 853 834 822 817 833 841 847 871 886 872 877 865 866 862 841 819 807 791 767 757 750 759 750 751 757 771 787 797 825 841 845 855 864 872 858 879 902 919 919 896 893 896 876 856 830 809 785 752 759 781 804 825 835 850 869 888 890 907 917 924 938 947 962 970 964 946 925 905 896 874 864 832 791 770 762 776 802 816 836 855
501 518 544 545 540 546 545 541 544 538 540 536 534 530 531 528 529 523 522 532 537 544 543 539 534 529 530 528 530 534 540 543 538 539 536 549 546 545 546 548 548 552 549 540 543 544 545 543 541 548 550 549 550 549 550 548 536 534 531 526 532 532 531 537 535 528 532 530 534 535 530 539 545 548 564 565 560 568 566 583 588 592 591 585 579 581 573 572 570 559 560 553 549 549 544 550 565 548 539 540 548 557 556 556 559 562 576 578 583 583 593 588 597 597 594 595 588 569 545 555 556 565 581 582 577 572 566 564 558 567 564 558 563 565 570 578 588 607 614 622 622 617 617 625 633 645 654 664 674 683 685 699 702 715 728 735 733 741 749 748 753 762 774 779 795 802 803 806 823 830 838 847 857 870 874 878 884 890 902 916 927 936 937 941 951 958 948 927 919 903 889 866 879 881 892 894 882 891 917 924 930 951 958 976 985 990 985 976 976 990 988 976 980 983 1003 1008 998 1001 998 986 992 985 993 1008 1017 1033 1044 1046 1050 1052 1052 1051 1048 1042 1009 999 969 951 943 937 913 898 910 889 876 853 844 847 829 839 851 862 880 879 898 906 894 891 872 845 831 812 787 771 763 772 783 772 755 769 767 769 776 798 810 834 846 858 865 881 878 890 901 921 920 915 904 903 886 866 840 811 791 762 773 793 804 823 845 864 873 893 910 913 930 948 956 964 970 978 977 955 939 921 906 883 861 820 807 777 772 782 804 833 858 866
491 532 534 540 534 538 540 535 530 533 533 527 521 518 528 519 517 519 517 523 532 532 530 532 525 523 526 520 523 528 531 537 537 529 530 534 540 537 536 542 539 542 547 542 533 538 539 541 534 532 543 540 543 548 544 531 531 526 527 523 525 529 533 533 531 523 519 524 521 529 522 522 538 544 550 557 544 542 552 565 583 582 579 576 572 572 569 569 559 553 552 547 545 548 540 549 546 545 530 539 543 556 559 563 565 569 577 579 582 580 579 580 585 588 587 582 582 562 551 546 557 564 578 577 571 571 568 558 555 558 558 556 557 563 565 569 579 587 610 615 616 614 618 619 629 636 641 658 671 680 679 691 705 712 716 729 735 741 750 755 758 761 769 782 789 800 805 808 810 824 831 846 849 861 880 884 886 892 903 909 923 929 934 935 940 954 949 926 903 885 877 862 863 871 886 874 873 877 889 913 916 931 954 968 978 981 976 969 968 971 974 967 965 979 988 991 990 989 991 976 974 981 985 997 1014 1028 1033 1045 1050 1051 1050 1049 1050 1048 1033 1007 995 972 940 926 909 896 885 871 867 867 861 866 865 858 881 876 888 900 907 918 898 877 866 844 814 788 780 785 797 788 794 775 761 773 794 778 780 787 809 825 839 854 874 891 891 897 912 922 937 926 929 913 893 870 848 826 798 765 776 797 814 827 842 864 882 894 910 927 946 954 968 978 982 983 978 965 950 922 894 873 864 831 798 786 775 796 821 833 860 886
504 522 527 527 531 533 530 526 525 524 524 522 513 515 511 514 510 511 513 517 519 523 522 519 518 518 524 519 513 522 525 528 530 527 524 532 532 531 528 525 531 532 536 536 529 528 536 534 534 531 533 536 537 534 537 526 518 524 520 519 530 530 533 529 521 519 513 508 513 511 515 520 522 537 543 526 530 537 548 566 569 563 570 565 569 566 565 566 557 544 550 549 540 540 535 541 531 527 529 545 556 559 565 563 563 564 573 573 569 575 571 570 580 572 570 574 575 566 547 541 553 558 565 576 571 568 564 564 556 553 549 554 556 557 563 568 574 577 589 610 607 605 615 622 626 631 637 643 658 662 681 688 690 706 712 713 728 736 740 749 752 765 767 774 788 797 801 807 811 816 824 832 847 853 864 885 890 892 901 910 914 924 926 926 935 943 943 927 921 895 882 872 852 858 870 869 852 872 879 888 912 923 925 950 961 959 968 963 960 961 959 955 957 961 975 977 974 983 970 966 965 973 991 1006 1010 1020 1034 1035 1047 1047 1049 1047 1045 1044 1040 1024 995 979 972 947 939 908 902 901 884 885 888 882 873 871 885 899 903 904 924 916 902 873 846 823 810 795 809 815 812 820 794 782 766 785 798 807 792 793 795 814 829 860 870 893 901 906 923 937 950 952 938 921 900 878 858 825 820 795 781 796 800 821 838 858 872 890 915 924 939 959 963 969 979 976 973 963 940 909 894 871 845 837 828 785 789 798 822 850 875 888
502 517 515 519 517 521 525 517 520 519 512 513 503 502 505 503 503 507 502 512 511 509 513 513 511 511 517 518 511 513 523 523 520 523 522 523 526 527 524 519 518 526 528 524 521 521 519 522 521 519 530 528 531 524 519 518 514 509 511 520 521 528 525 527 521 512 505 502 493 501 499 504 518 523 532 515 516 536 539 545 554 551 555 563 568 566 564 556 554 541 544 544 540 529 535 530 524 533 546 548 554 558 563 560 552 555 560 566 555 567 566 564 566 560 562 561 569 568 557 537 553 553 567 575 574 574 573 556 556 546 549 554 555 556 559 564 567 570 585 591 597 605 612 626 629 630 632 637 642 657 662 670 685 690 705 711 716 726 732 737 745 753 757 770 774 790 799 805 809 813 817 827 836 847 863 869 889 896 899 905 909 920 925 923 928 940 945 938 920 908 885 860 840 848 857 853 844 845 870 885 892 910 910 922 947 953 953 962 956 953 947 941 948 952 953 967 964 967 965 951 965 978 987 1006 1006 1008 1025 1026 1036 1044 1047 1044 1041 1039 1036 1025 1017 991 985 981 957 941 936 919 921 904 906 909 887 883 893 904 916 927 928 925 894 866 852 825 821 828 825 836 849 832 810 779 771 781 809 824 824 805 809 812 819 845 876 888 908 922 941 952 963 964 956 928 910 893 874 860 827 807 794 789 796 800 820 834 856 877 891 919 925 944 959 971 978 974 967 960 943 918 890 884 870 854 823 803 794 812 840 855 878 898
499 511 508 504 507 512 510 512 507 511 506 505 502 501 499 501 498 490 495 492 503 499 497 507 504 502 512 516 511 509 515 517 516 517 517 518 520 524 519 513 516 516 523 521 508 511 506 506 514 509 512 521 512 515 513 510 508 504 506 514 512 512 519 517 513 509 500 493 488 484 494 497 499 515 505 502 508 516 532 535 531 541 557 560 569 566 564 553 542 536 536 531 530 533 532 524 521 534 545 547 553 555 560 558 555 545 554 545 547 560 554 558 558 548 555 554 552 556 537 532 554 571 574 573 574 580 580 567 546 540 543 549 546 553 558 558 564 566 569 582 580 595 609 617 624 631 638 637 640 643 658 662 669 685 692 704 709 715 724 729 734 746 749 751 768 781 796 802 804 810 813 819 835 842 853 868 875 893 899 895 903 916 919 921 923 929 944 944 923 898 876 858 842 834 845 845 826 836 844 858 883 878 893 906 921 943 942 945 958 955 945 933 929 940 944 948 956 956 945 948 953 968 991 997 1002 1008 1011 1020 1031 1040 1043 1043 1033 1038 1035 1027 1016 1014 1000 993 984 957 951 950 938 939 923 919 916 894 912 930 928 938 949 923 910 872 851 843 837 851 868 852 863 840 820 792 782 791 805 833 839 833 822 827 826 839 864 891 918 929 950 972 982 975 960 944 922 902 881 856 845 814 810 819 812 816 818 822 842 871 887 910 933 949 955 971 982 983 975 971 951 931 907 883 862 851 826 797 810 813 838 870 881 901
501 500 502 498 495 503 505 498 501 500 503 497 496 501 496 489 491 483 478 485 485 492 489 488 495 492 497 512 509 505 506 504 506 512 511 511 515 517 518 513 513 516 524 523 507 507 499 499 502 505 506 504 506 505 503 503 504 499 502 503 506 503 502 509 500 491 496 488 480 480 480 488 494 499 499 489 497 507 516 522 519 523 549 558 562 565 560 548 540 533 528 521 524 527 512 510 523 540 545 546 548 555 557 558 553 543 538 541 552 555 552 545 543 540 549 549 537 533 529 545 555 569 574 567 570 576 574 557 547 539 554 556 553 552 552 556 562 563 564 572 586 607 614 620 627 633 637 645 641 640 644 657 665 668 682 689 694 708 713 725 726 730 741 746 749 772 782 788 799 804 811 814 822 839 845 854 871 878 881 888 898 915 917 917 921 926 935 939 922 914 890 871 852 832 825 827 816 815 838 851 856 865 869 890 904 914 929 931 944 950 947 938 920 917 931 937 936 936 934 936 955 962 973 990 999 1007 1006 1016 1027 1036 1034 1034 1029 1031 1027 1016 1013 1019 1016 1005 996 988 965 963 963 952 952 948 928 926 923 940 952 954 960 946 908 896 877 854 882 871 884 878 869 840 810 785 789 790 818 844 851 848 853 842 842 847 875 886 909 937 952 979 994 983 971 947 916 894 880 854 831 823 845 844 853 834 836 830 843 872 893 913 920 939 959 976 985 992 996 982 957 930 894 884 863 839 817 801 816 845 849 875 895 911
487 496 492 491 488 496 500 496 495 493 488 485 488 484 490 482 475 473 471 471 477 478 478 480 476 481 487 498 497 500 493 498 500 499 503 499 507 511 512 512 511 513 521 519 514 506 495 492 498 494 499 496 493 501 500 497 498 495 500 500 495 497 494 487 490 481 480 480 476 478 478 478 484 492 484 484 492 498 508 502 511 524 535 551 556 555 556 547 539 529 525 518 513 502 506 522 541 544 546 547 547 549 553 552 549 547 534 542 550 553 554 552 544 526 532 525 525 527 537 547 567 575 575 566 556 562 553 549 530 535 558 571 583 570 571 581 577 580 570 588 596 609 621 628 629 635 641 642 646 644 649 650 656 664 671 683 692 702 706 710 721 726 728 738 744 747 768 786 796 803 808 813 815 823 840 848 854 869 871 878 888 905 915 914 916 926 932 933 926 904 893 872 849 832 820 817 801 811 815 837 845 839 854 867 878 897 901 926 932 934 939 930 923 906 910 912 924 912 925 932 944 960 968 975 997 997 998 1011 1017 1028 1028 1023 1025 1025 1019 1013 1008 1006 1012 1012 1002 1001 999 976 975 974 963 961 958 938 955 957 961 971 963 951 928 898 879 877 892 914 901 884 856 823 811 800 791 803 815 842 867 877 868 877 858 856 866 895 908 936 966 994 1004 986 966 931 917 895 866 859 846 843 865 873 869 860 849 839 860 878 883 902 928 946 956 974 996 999 1003 987 953 942 922 885 861 849 821 811 816 841 862 887 898 919
487 488 488 479 485 490 492 490 492 493 492 483 480 482 476 471 468 464 468 466 462 471 469 468 472 470 480 487 489 491 487 488 495 495 494 492 495 505 506 496 503 503 502 506 500 496 485 482 493 493 485 488 488 488 493 493 487 488 495 494 492 490 489 481 471 475 472 465 472 476 476 477 480 484 481 470 487 491 488 494 494 510 532 537 549 551 547 540 536 530 521 516 504 500 517 524 541 546 547 547 547 549 548 545 541 531 531 538 537 547 548 551 544 532 514 527 538 534 550 559 564 570 567 557 549 541 534 527 531 555 574 579 590 592 583 593 596 593 597 597 609 617 620 626 627 631 635 642 645 645 647 652 657 666 677 689 696 703 696 704 707 719 724 732 745 755 776 784 792 802 808 809 815 821 825 844 854 850 862 875 884 897 901 907 915 918 927 928 921 903 881 858 844 831 811 806 795 801 807 813 834 822 837 854 861 868 890 902 925 921 918 922 908 886 901 900 896 902 910 934 937 942 962 975 978 997 999 1001 1009 1009 1018 1016 1011 1016 1007 1004 1001 1002 1003 1008 1011 1012 1009 1002 985 984 984 973 963 967 967 978 986 981 980 949 927 914 888 901 910 925 916 885 867 836 807 819 810 806 829 842 867 896 905 895 892 872 872 888 921 946 957 991 1008 992 973 952 915 903 896 868 851 857 874 887 882 858 843 867 872 887 890 907 917 943 964 976 996 1013 1014 996 979 947 927 918 880 851 842 818 820 841 856 880 908 917
484 479 470 474 469 470 479 476 485 483 481 484 476 471 468 463 459 461 454 455 456 458 463 462 464 466 468 476 485 480 484 488 490 491 484 483 489 490 491 495 485 494 491 489 491 484 480 475 480 478 483 478 482 483 483 487 476 479 491 490 489 488 482 473 467 464 463 454 456 470 471 473 480 478 472 462 464 479 473 473 498 518 521 529 536 547 543 532 529 526 519 518 499 490 511 527 539 542 543 544 544 542 543 536 531 526 528 534 529 538 542 542 536 515 515 532 539 540 548 552 555 562 560 556 549 542 523 537 539 543 567 579 587 588 589 592 591 595 603 610 611 613 612 620 622 622 631 633 636 646 649 652 658 664 674 684 689 695 689 695 701 708 731 738 748 753 772 785 788 799 805 808 810 818 833 844 848 844 855 868 875 876 896 898 903 916 917 926 913 900 883 872 860 833 823 803 784 782 796 807 808 810 828 836 848 853 864 896 905 910 902 902 901 878 885 890 889 885 907 911 918 939 943 963 977 990 993 993 992 1003 1000 1005 1003 1001 1003 993 993 999 1001 1007 1010 1011 1012 1005 1003 995 997 993 975 981 993 990 995 998 973 960 931 911 915 918 932 941 922 893 868 832 822 834 818 812 832 862 891 900 920 929 911 909 906 908 916 940 970 996 1012 1004 986 966 953 944 904 894 861 881 896 897 878 854 849 873 897 906 914 918 933 943 960 985 1004 1014 1022 1004 990 972 941 925 910 865 842 829 821 839 865 879 904 925
469 474 463 456 460 460 460 467 469 473 469 467 472 467 461 458 453 444 442 447 452 455 455 459 460 458 464 468 476 477 480 485 483 481 479 477 479 485 484 481 480 482 486 482 481 480 472 468 472 473 471 475 475 477 475 472 472 466 467 485 484 481 481 473 462 458 456 452 450 454 463 470 474 478 470 451 452 454 452 474 490 513 517 522 531 538 530 528 520 518 515 514 508 486 496 524 529 525 534 529 536 532 531 531 528 523 524 530 523 532 533 530 527 511 522 523 529 538 541 543 550 548 552 550 547 531 527 537 548 546 553 573 576 582 581 588 594 599 603 613 611 608 605 610 618 620 617 625 626 629 641 640 642 660 668 679 679 680 692 702 719 728 741 744 746 754 765 779 791 799 802 801 811 820 825 839 829 839 849 856 867 869 878 892 896 904 911 914 914 907 889 873 865 845 824 815 802 782 772 772 798 798 818 823 824 845 854 877 895 881 871 889 886 870 875 878 875 878 888 906 914 929 944 961 972 979 975 985 985 985 993 998 994 991 987 989 989 990 998 1005 1007 1013 1012 1011 1008 1010 1005 1004 999 992 999 1010 1009 1005 985 958 946 941 936 952 945 944 918 890 877 847 837 852 861 826 863 873 899 929 930 941 942 923 922 932 937 958 962 988 1016 1014 995 983 970 960 939 897 888 888 915 905 886 861 871 893 905 926 933 942 945 962 984 989 1008 1027 1025 1005 982 962 952 925 898 888 856 839 833 838 859 881 910 920
463 455 454 452 443 450 450 449 461 457 455 457 453 460 453 448 450 445 431 444 444 446 450 450 456 456 459 466 470 470 477 476 472 473 470 474 474 475 478 477 470 478 477 475 475 467 467 465 464 469 468 469 466 465 464 465 464 462 462 467 478 476 473 468 463 458 454 451 446 450 450 461 463 460 464 444 429 436 439 462 490 505 513 517 521 531 527 519 513 509 512 496 487 485 515 519 521 516 512 523 524 523 524 525 523 511 521 526 521 519 526 523 516 504 507 517 526 528 536 534 536 540 540 542 534 520 523 541 544 550 554 561 565 578 586 594 597 603 611 612 613 603 603 609 612 604 609 610 616 623 631 640 655 655 661 671 681 687 706 717 733 740 743 748 749 753 762 781 791 798 801 799 805 817 822 825 828 830 843 849 852 868 872 882 894 901 902 908 908 892 885 862 849 840 825 819 806 799 776 764 773 790 806 810 814 831 858 877 878 866 853 856 880 857 866 867 861 882 885 898 922 935 944 961 961 960 966 964 980 979 982 992 982 978 979 973 975 986 991 1001 1003 1005 1007 1011 1013 1014 1018 1020 1011 1017 1012 1018 1029 1003 997 977 951 962 967 963 961 932 918 893 863 854 864 876 874 876 871 901 915 943 957 957 958 956 945 954 958 971 991 1001 1018 1022 996 997 993 962 953 927 899 924 935 914 890 863 874 902 924 935 956 959 978 985 993 1012 1015 1035 1021 993 983 966 943 933 927 898 867 846 837 850 872 883 908 927
451 447 440 442 438 432 438 442 442 448 446 442 445 440 442 439 435 434 426 432 441 443 445 447 447 456 457 454 465 461 464 468 469 469 468 466 468 469 469 470 465 467 472 465 462 463 451 463 460 461 466 466 461 461 459 456 459 454 452 457 459 467 465 458 458 456 453 448 440 445 444 442 451 450 438 432 422 423 449 471 485 496 501 512 511 516 521 518 508 504 502 488 482 505 514 513 505 505 506 505 514 514 512 520 519 513 511 517 520 512 513 515 513 498 506 509 519 518 524 530 532 531 531 528 521 511 523 538 542 549 558 568 578 586 590 599 603 607 610 610 604 600 603 597 600 599 615 626 634 635 654 676 668 668 681 680 689 701 719 726 737 744 742 745 748 757 763 780 791 797 797 795 801 803 816 817 814 825 836 837 847 855 871 876 880 897 898 893 902 891 871 856 833 814 809 806 802 784 774 754 766 781 792 792 812 833 840 864 863 854 838 843 841 852 838 839 852 876 894 902 909 932 948 959 957 952 947 955 960 974 977 974 974 967 963 966 971 974 985 991 1001 999 999 1008 1014 1015 1020 1025 1029 1026 1031 1033 1037 1024 998 979 980 977 985 986 970 946 923 900 872 874 887 899 905 889 876 903 923 946 960 980 975 975 977 967 978 982 1001 1023 1040 1032 1021 1014 1006 979 949 935 939 943 944 918 897 875 892 906 933 953 971 981 990 1002 1010 1021 1041 1037 1028 1009 982 973 968 946 927 915 877 850 849 853 875 902 931 943
449 446 439 426 430 422 420 430 430 425 436 431 429 433 430 432 429 427 423 433 436 440 444 442 444 448 451 448 453 455 463 466 468 469 469 464 461 457 462 459 458 460 459 459 453 452 445 454 455 458 460 458 455 453 455 450 446 450 439 446 451 448 450 449 443 448 444 442 440 438 436 437 438 437 430 423 412 429 440 468 478 480 492 493 507 515 521 514 508 500 495 472 477 500 500 502 499 498 501 501 505 508 509 508 514 509 505 509 507 508 509 502 504 491 491 509 509 513 528 527 529 528 526 518 512 503 522 529 537 540 545 568 570 577 590 594 597 602 596 604 598 587 599 589 599 613 622 640 653 667 665 685 693 685 692 698 700 703 715 729 735 738 734 738 743 753 766 784 789 793 794 791 789 806 812 809 813 822 827 828 840 856 857 858 876 885 892 885 891 892 877 857 832 820 802 788 781 775 753 750 760 772 777 803 813 830 835 836 851 838 810 826 822 814 824 830 856 883 895 908 915 926 939 952 946 947 940 937 951 957 972 964 961 959 954 948 960 966 969 984 985 985 993 994 1007 1012 1019 1027 1033 1040 1037 1042 1041 1023 1017 994 999 1006 996 986 959 949 928 896 889 901 902 923 933 906 887 907 915 941 966 988 994 993 993 995 994 1003 1026 1033 1049 1045 1033 1032 1000 989 982 954 968 971 952 931 905 884 896 924 945 955 977 999 1006 1013 1030 1051 1052 1057 1044 1016 1009 982 960 947 932 904 876 859 850 871 886 898 932 955
438 434 430 420 415 410 409 409 419 414 413 422 423 419 422 422 422 416 416 429 430 431 441 439 435 442 441 440 444 446 463 469 473 471 474 474 466 456 453 453 451 454 445 443 446 444 431 445 453 455 459 458 451 448 446 450 441 433 438 438 443 446 445 439 435 434 437 434 429 435 425 416 431 420 412 405 396 422 439 449 472 472 475 484 491 520 519 509 498 494 489 472 476 489 494 493 495 495 493 499 501 498 505 504 505 506 503 504 502 497 502 496 489 488 492 498 508 517 525 526 526 527 527 519 495 507 510 521 523 529 537 546 563 569 576 589 589 586 587 587 578 581 582 591 601 619 633 647 653 670 678 682 694 702 702 706 714 714 717 724 734 729 725 733 736 755 760 775 789 790 788 782 792 797 810 798 806 816 815 827 832 839 847 855 859 877 876 879 885 887 870 859 840 816 809 788 761 750 746 749 766 758 769 798 821 824 816 825 825 817 802 793 804 799 822 846 861 888 909 925 931 930 940 947 943 932 931 929 933 950 951 947 950 940 945 940 949 961 960 963 974 977 983 989 996 1006 1014 1024 1035 1043 1047 1048 1047 1039 1019 1022 1012 1013 997 984 961 946 917 904 909 925 937 951 934 904 893 921 926 950 957 969 988 990 1000 1013 1028 1019 1034 1057 1057 1057 1058 1037 1029 1006 976 985 984 982 959 939 914 896 909 922 943 968 982 1006 1025 1044 1042 1061 1079 1065 1057 1039 1005 993 962 939 922 903 892 879 862 876 904 910 921 947
413 419 418 416 416 412 403 404 405 408 406 408 415 414 416 421 422 411 420 425 425 422 425 431 429 431 430 430 444 456 467 470 477 482 480 479 472 457 454 455 451 451 440 432 433 439 427 441 455 453 452 451 445 443 444 442 441 428 419 428 436 434 439 435 429 430 424 429 423 418 417 407 411 403 396 393 389 398 427 448 459 467 466 472 480 500 508 501 496 488 481 466 465 480 484 489 489 488 489 489 497 491 492 499 497 497 501 497 495 497 494 493 478 477 492 514 520 519 525 525 525 527 528 510 497 497 507 513 521 527 531 538 547 568 575 575 581 571 567 575 577 592 587 600 613 625 628 641 650 655 672 679 687 699 707 715 719 723 718 723 721 721 720 728 732 744 760 767 779 786 775 774 788 797 800 795 794 811 815 817 828 830 831 846 855 859 870 866 875 884 879 856 845 819 795 777 767 741 732 746 756 747 780 793 800 811 801 801 814 796 782 779 795 819 832 851 875 900 912 936 950 954 946 955 943 937 924 923 927 933 938 934 932 933 925 936 940 944 952 955 963 977 975 978 988 995 999 1017 1027 1043 1046 1052 1049 1044 1044 1035 1034 1027 1004 994 968 958 937 909 920 945 956 959 949 910 918 940 943 951 952 957 970 978 999 1007 1032 1052 1048 1067 1078 1070 1069 1050 1022 996 984 994 1006 992 968 951 922 911 906 927 942 965 996 1024 1038 1053 1070 1079 1087 1088 1061 1051 1033 994 971 960 934 919 901 888 878 895 911 936 943 969
406 402 405 404 400 404 400 399 399 398 397 402 403 413 415 417 415 404 411 424 416 412 418 420 426 422 423 437 450 454 469 478 480 482 480 480 477 469 460 461 463 460 448 441 421 422 426 434 450 451 449 441 432 430 431 435 425 425 415 423 429 427 425 422 420 418 420 417 419 407 393 397 396 394 390 387 375 402 423 441 450 451 458 467 469 493 500 496 489 481 477 467 459 473 481 481 483 482 477 483 484 486 485 487 492 490 490 491 490 488 487 482 474 491 510 516 518 518 523 523 525 528 527 517 486 478 497 507 516 522 525 528 548 557 564 565 559 561 568 581 583 600 608 609 611 616 626 629 643 650 658 670 677 686 700 705 711 720 714 715 707 715 719 728 734 739 747 753 771 769 768 776 780 793 788 784 794 812 816 815 815 822 828 831 846 854 855 860 868 875 880 865 836 819 809 786 760 733 727 734 726 740 763 787 791 792 790 793 792 791 762 762 786 808 827 861 872 895 920 933 956 971 977 964 950 931 927 913 924 927 924 924 920 915 917 919 923 934 938 956 957 959 968 975 978 990 1001 1011 1022 1032 1048 1054 1056 1056 1061 1063 1043 1033 1026 1009 998 961 949 932 942 964 975 966 938 924 929 955 965 971 984 978 993 1000 990 1009 1019 1049 1074 1091 1087 1087 1068 1042 1031 1001 997 1008 1004 979 955 951 927 914 917 921 946 970 983 1015 1039 1066 1078 1094 1097 1094 1078 1053 1029 1013 977 950 925 915 900 888 892 891 924 946 956 973
395 397 391 392 389 386 391 391 389 395 395 391 397 402 411 409 405 400 415 419 415 404 405 415 413 416 432 439 446 456 460 474 476 467 471 469 476 472 464 466 469 465 447 424 394 410 399 433 443 450 446 438 432 424 424 421 421 411 413 416 415 420 414 410 410 406 406 411 405 393 384 380 387 388 376 369 378 387 413 426 433 443 447 463 463 465 489 488 486 484 477 473 457 463 477 474 473 476 474 472 477 469 470 479 475 483 482 478 481 482 486 472 486 496 509 508 512 512 516 519 521 522 522 505 493 469 479 496 507 514 522 523 527 554 554 547 560 578 578 587 601 608 608 602 610 613 617 627 634 643 651 657 667 677 685 701 708 716 710 699 703 715 727 729 737 736 742 745 749 755 759 777 781 776 777 783 799 813 813 814 811 812 819 827 834 846 849 850 860 868 873 860 851 830 802 783 764 743 727 718 719 727 751 756 771 782 774 781 779 761 756 752 772 803 815 839 874 886 924 948 973 980 988 969 956 935 917 905 910 925 915 907 913 908 902 911 913 912 934 937 947 953 958 972 977 989 997 1005 1012 1028 1034 1044 1056 1061 1071 1071 1064 1046 1041 1028 1012 988 957 950 960 975 990 965 944 930 945 961 974 989 1001 1006 1006 1016 1014 1002 1029 1057 1071 1092 1094 1077 1065 1046 1023 1010 1001 1011 985 973 956 957 940 939 918 931 943 965 987 1010 1035 1057 1080 1093 1097 1094 1067 1052 1026 997 969 951 924 919 914 920 916 897 911 940 955 965
394 388 387 385 382 382 380 383 380 382 390 386 388 399 399 399 397 394 410 415 404 399 399 404 412 418 430 440 438 449 455 460 468 461 449 456 450 445 447 450 471 451 422 413 389 377 393 414 436 449 447 439 426 422 419 413 405 405 404 402 409 407 409 396 389 396 394 388 398 387 367 372 367 375 355 349 376 385 398 415 426 433 442 448 458 457 458 483 482 482 479 470 456 454 462 467 465 460 465 464 464 464 466 461 466 464 473 471 471 479 479 468 484 495 496 503 501 509 511 515 517 514 512 501 476 462 469 486 505 507 518 522 527 534 540 565 576 584 593 599 603 594 593 592 597 608 618 622 631 640 644 651 660 674 678 686 707 708 702 697 705 711 725 731 737 734 728 737 737 742 762 777 780 770 779 790 794 800 811 813 810 811 812 810 825 833 842 842 847 865 865 844 834 820 814 792 773 754 735 714 703 707 719 753 760 772 765 757 769 750 737 756 767 789 818 830 855 889 912 939 958 972 988 968 947 927 918 901 905 912 907 905 898 902 894 897 902 904 912 925 924 937 962 967 974 983 993 1004 1008 1017 1034 1038 1044 1059 1069 1077 1077 1069 1053 1030 1005 977 970 984 984 1013 1002 978 954 938 950 955 978 986 1011 1026 1033 1031 1022 1013 1026 1049 1069 1096 1099 1079 1051 1039 1025 1015 1027 1014 992 989 974 974 963 939 948 951 950 977 993 1017 1040 1047 1074 1094 1096 1090 1071 1045 1032 998 971 947 928 932 946 933 930 912 915 923 951 976
388 387 385 383 381 379 379 378 377 378 379 382 382 386 393 393 388 394 407 412 403 394 399 404 416 422 425 430 438 443 449 448 451 454 440 423 434 429 422 453 451 445 420 393 381 370 395 421 433 451 447 445 433 429 424 413 408 401 398 397 392 401 398 390 380 377 383 378 375 380 362 356 355 355 345 349 360 376 384 404 418 425 435 444 448 451 451 454 475 474 475 474 461 449 457 454 457 454 452 459 460 454 460 456 452 456 457 460 466 469 472 466 476 489 491 488 494 499 502 511 509 512 506 493 472 467 492 499 509 528 525 544 550 557 559 569 578 573 586 578 574 582 591 596 596 601 613 622 626 637 642 650 656 660 674 685 690 704 699 694 704 713 713 723 715 719 719 719 732 750 758 773 774 762 774 783 792 793 797 810 804 798 803 809 809 824 828 834 838 849 849 824 811 808 797 790 777 764 746 727 715 698 706 731 757 762 754 746 742 726 737 756 779 789 810 835 858 867 896 909 917 951 961 955 946 927 909 890 886 905 899 899 892 892 884 886 888 901 903 906 922 939 943 955 960 979 983 990 1007 1011 1017 1032 1040 1046 1065 1076 1084 1073 1046 1018 1007 996 990 1005 1015 1024 1009 997 963 968 967 966 972 995 1007 1034 1052 1054 1050 1030 1033 1052 1066 1093 1096 1084 1066 1043 1041 1045 1035 1017 1000 1005 1011 986 976 960 967 971 973 969 1001 1021 1045 1071 1088 1097 1094 1073 1063 1040 1019 994 983 957 944 954 960 964 935 924 921 936 956 966
386 385 383 382 380 378 377 377 376 376 377 377 379 381 383 387 385 388 401 405 397 392 397 409 415 416 422 422 423 439 425 433 441 443 424 412 406 406 421 428 439 424 412 388 359 381 393 415 435 441 448 447 442 441 433 422 411 408 401 393 388 385 388 373 370 369 363 372 367 362 351 347 337 336 337 337 348 364 377 398 401 422 428 432 445 445 442 448 456 467 469 468 465 448 454 449 448 445 445 447 453 447 446 450 446 445 453 456 462 467 468 462 477 482 487 485 497 499 501 503 505 504 502 472 451 460 490 513 522 528 527 543 544 557 550 546 564 558 556 563 572 591 602 605 601 603 608 619 622 630 640 645 648 664 670 680 685 690 701 691 703 713 711 705 706 702 703 717 727 745 759 769 775 761 763 777 781 784 792 797 800 791 791 801 802 813 823 822 830 844 839 820 792 780 784 768 759 767 749 726 718 686 711 733 740 754 740 728 731 725 753 761 783 800 820 830 853 860 864 893 909 923 945 946 933 914 905 889 881 886 897 893 883 889 883 874 882 888 899 906 908 927 928 934 948 955 969 982 987 1002 1015 1020 1034 1047 1053 1071 1076 1071 1054 1039 1011 1016 1013 1020 1036 1042 1020 1001 983 981 997 986 988 994 1020 1048 1061 1067 1062 1064 1053 1059 1081 1094 1109 1085 1076 1071 1057 1061 1054 1031 1029 1044 1031 1017 980 981 995 991 999 1001 997 1027 1057 1070 1093 1107 1101 1082 1053 1028 1017 992 988 985 958 979 979 977 959 928 936 949 965 984
385 385 383 381 381 377 376 375 376 374 372 374 375 379 381 382 386 394 401 403 399 391 395 403 413 409 408 408 415 423 414 411 424 437 422 397 390 383 410 414 412 416 394 369 356 359 397 402 407 437 438 440 446 445 439 427 419 408 406 402 385 381 379 367 359 358 355 355 354 354 349 341 328 320 333 337 338 361 377 392 395 407 422 425 430 442 437 433 447 458 468 468 462 446 445 441 443 441 440 441 442 444 443 441 442 442 447 458 463 465 460 461 473 477 483 493 498 502 506 503 494 495 479 466 447 469 490 502 503 513 512 513 530 528 523 531 538 547 559 578 586 589 596 606 609 615 610 613 617 623 630 638 645 656 670 669 669 686 691 689 695 702 709 707 695 696 701 716 732 739 751 760 770 766 755 763 780 781 780 794 794 789 789 788 796 805 814 818 822 829 829 818 790 762 753 757 745 737 741 720 699 687 698 716 735 724 729 720 709 725 750 774 795 803 811 832 838 846 855 873 896 910 922 931 922 904 892 883 872 877 880 891 876 877 879 872 879 887 889 899 900 904 918 923 937 948 960 969 987 995 1013 1022 1028 1045 1057 1061 1070 1074 1070 1045 1044 1033 1032 1043 1050 1048 1024 1007 1000 1015 1017 1027 1031 1010 1023 1050 1076 1089 1075 1080 1090 1078 1084 1101 1118 1116 1090 1087 1088 1075 1061 1066 1045 1056 1053 1029 1018 990 1020 1027 1019 1022 1023 1027 1056 1081 1093 1115 1097 1076 1066 1033 1019 1024 1010 999 1002 995 1006 981 966 955 937 966 989 995
391 388 388 384 383 380 376 375 375 375 371 374 377 377 381 393 404 400 406 409 404 400 391 397 398 401 392 386 406 413 395 401 416 418 405 394 377 380 388 400 401 385 384 363 339 346 364 388 400 405 423 431 440 445 440 437 429 419 406 402 400 390 383 378 357 349 344 346 343 339 339 332 330 314 316 334 342 360 375 384 394 405 413 422 427 429 433 430 441 452 464 460 461 450 443 438 439 441 438 438 440 440 438 438 439 442 446 454 462 451 444 463 471 474 481 483 494 494 491 490 477 473 474 448 441 461 476 492 492 492 500 498 499 514 522 534 539 562 573 573 571 586 588 595 608 616 618 621 626 626 630 637 648 649 656 660 669 676 691 682 687 693 693 696 690 694 706 714 717 734 740 742 761 768 752 756 764 776 772 781 791 784 782 784 792 801 805 808 818 823 827 807 782 769 740 725 731 724 709 703 697 671 698 712 715 713 705 710 708 733 758 770 791 808 802 803 826 822 840 859 877 899 905 911 907 899 881 871 851 864 871 882 879 870 867 871 879 878 883 883 886 896 901 915 931 934 953 959 971 993 998 1008 1026 1033 1047 1052 1058 1071 1072 1074 1065 1061 1059 1065 1067 1052 1034 1027 1016 1026 1046 1052 1052 1045 1037 1057 1073 1098 1106 1093 1106 1110 1102 1108 1138 1122 1115 1102 1105 1093 1077 1084 1082 1072 1064 1052 1027 1022 1040 1046 1056 1039 1039 1046 1056 1080 1107 1122 1116 1091 1061 1046 1038 1043 1039 1011 1014 1033 1017 1012 990 966 959 967 993 1018
394 392 389 389 389 385 384 375 374 373 370 372 377 384 397 403 410 409 411 411 409 404 399 378 386 383 372 378 389 402 392 383 408 412 393 377 369 361 376 377 392 376 355 354 334 336 358 362 374 394 400 418 430 431 440 437 433 418 410 399 401 400 390 382 372 356 344 337 338 336 336 328 324 316 315 329 338 356 369 378 393 399 410 413 423 424 424 425 430 434 454 459 455 449 447 439 440 441 439 439 439 439 438 437 438 439 447 450 449 446 450 462 467 467 463 473 471 481 475 469 468 461 459 444 446 468 476 484 489 490 484 488 505 515 528 546 555 565 565 556 561 567 580 587 591 608 613 619 626 632 637 643 651 659 667 670 673 684 688 685 677 683 686 696 699 702 701 704 712 719 736 738 747 762 759 751 752 755 762 776 779 785 779 781 786 802 808 810 815 824 824 814 788 766 753 729 703 706 699 680 680 667 680 701 695 688 695 693 717 728 749 775 784 793 791 794 800 811 828 843 861 869 894 898 897 885 868 860 847 847 854 874 879 864 862 864 875 874 875 880 883 885 897 910 927 927 941 960 969 986 997 1007 1010 1024 1031 1046 1051 1057 1069 1073 1082 1071 1083 1090 1076 1070 1052 1042 1055 1046 1052 1074 1064 1062 1068 1070 1085 1098 1120 1127 1124 1124 1132 1132 1145 1146 1130 1134 1133 1107 1109 1102 1100 1094 1069 1070 1054 1036 1062 1073 1072 1068 1052 1047 1070 1095 1108 1129 1111 1088 1078 1060 1071 1061 1056 1030 1037 1046 1043 1010 1003 1002 970 991 997 1024
395 395 396 392 392 392 387 385 371 370 369 376 383 388 399 406 403 402 397 402 399 391 385 371 354 369 354 352 379 382 380 369 381 402 392 364 353 357 354 367 370 371 349 327 324 331 342 357 371 377 394 409 420 419 420 434 433 418 402 397 399 398 395 389 379 362 347 341 332 337 337 326 311 300 307 323 334 346 367 384 394 395 398 415 419 418 421 418 422 423 438 456 456 453 448 442 437 439 436 438 439 438 437 435 437 439 440 442 443 437 448 457 453 457 451 446 456 456 455 455 450 452 446 434 445 468 479 484 483 471 480 491 508 512 516 536 542 546 559 551 550 560 563 575 583 589 605 615 620 631 634 638 652 653 666 671 672 681 680 667 672 688 702 707 708 712 710 709 706 718 721 732 738 747 760 758 741 739 741 768 784 785 779 778 781 794 798 807 819 823 826 802 788 762 737 717 705 681 666 662 654 667 679 669 680 681 691 692 714 732 744 756 778 778 770 781 788 808 825 832 833 857 864 890 886 877 865 848 840 841 851 863 872 868 854 863 863 870 872 875 880 886 896 903 917 932 942 954 972 983 982 997 1001 1009 1023 1030 1041 1052 1061 1076 1089 1093 1094 1105 1102 1085 1071 1078 1070 1081 1073 1089 1090 1078 1092 1101 1098 1116 1146 1141 1150 1141 1144 1153 1159 1157 1157 1146 1140 1135 1121 1132 1114 1107 1094 1073 1057 1062 1067 1089 1096 1082 1067 1061 1069 1093 1120 1136 1126 1096 1078 1079 1085 1082 1068 1050 1056 1061 1044 1040 1025 1023 1015 1002 1036 1056
402 399 398 398 398 395 393 390 388 379 369 374 384 391 391 400 389 388 393 388 378 383 370 350 338 342 341 353 361 371 361 347 369 390 380 355 343 339 336 344 361 355 328 319 319 332 342 347 361 376 385 404 402 402 411 415 426 418 399 394 397 397 395 387 367 356 339 329 325 334 332 312 302 292 305 316 333 352 373 385 391 393 402 411 417 416 415 416 410 418 425 441 451 451 449 435 434 436 435 440 440 439 435 435 439 440 442 446 446 434 442 450 445 435 438 439 441 449 448 430 434 429 436 432 460 474 475 471 467 466 483 491 490 501 504 513 528 534 540 542 543 543 555 562 571 585 592 603 609 609 625 626 635 645 648 653 664 666 673 664 683 697 701 709 714 716 719 712 709 712 713 716 727 735 743 757 752 733 740 761 780 785 780 773 773 777 794 801 811 825 825 804 778 751 740 720 700 673 659 639 653 660 676 653 674 691 706 720 719 731 730 747 752 767 751 757 782 799 816 822 818 832 851 861 869 863 857 844 829 831 844 853 851 858 850 849 860 868 875 873 877 882 892 899 912 922 927 946 954 974 979 984 992 1001 1014 1023 1037 1048 1063 1070 1086 1094 1095 1109 1109 1102 1084 1094 1108 1099 1103 1102 1108 1111 1109 1124 1137 1124 1150 1165 1160 1164 1168 1165 1166 1168 1169 1166 1153 1150 1152 1144 1137 1122 1094 1085 1070 1077 1077 1092 1107 1094 1080 1089 1092 1101 1112 1136 1124 1116 1088 1100 1096 1084 1075 1077 1069 1083 1061 1057 1061 1037 1034 1021 1036 1065
405 404 400 402 399 397 395 393 390 385 368 373 378 381 383 378 383 382 373 378 367 358 355 346 325 318 330 345 346 336 346 338 358 389 390 366 347 338 323 330 330 347 334 311 313 320 342 352 359 372 384 389 396 393 391 404 407 407 394 388 389 391 390 388 367 342 330 313 326 326 320 305 282 282 310 329 348 355 378 390 390 390 400 410 414 415 413 406 408 406 424 433 438 445 443 440 422 427 436 438 437 432 431 423 432 434 435 443 442 435 432 438 435 433 432 436 436 441 433 418 415 419 430 451 459 464 466 462 460 474 473 472 482 488 490 502 507 527 526 517 536 528 535 556 569 570 583 588 595 597 600 615 622 624 640 641 645 658 655 667 675 681 698 702 706 717 718 717 710 707 709 717 722 727 731 737 740 721 727 755 771 782 779 770 770 773 781 800 805 813 816 795 785 759 743 715 706 693 658 645 631 653 644 641 667 685 699 718 725 726 720 720 742 738 728 748 768 788 806 792 813 821 814 850 856 859 846 831 824 827 834 842 841 840 838 843 857 870 869 875 883 886 885 894 900 916 920 932 953 961 973 976 990 997 1011 1019 1036 1041 1053 1071 1075 1079 1093 1105 1109 1111 1115 1115 1121 1126 1122 1129 1145 1134 1148 1139 1152 1157 1153 1171 1173 1171 1172 1171 1169 1171 1172 1174 1171 1162 1164 1162 1140 1134 1116 1095 1098 1092 1094 1114 1115 1107 1114 1101 1103 1117 1125 1137 1135 1117 1119 1111 1104 1099 1087 1093 1104 1098 1094 1089 1071 1059 1042 1027 1037 1059
403 403 396 400 400 392 390 388 383 373 362 350 358 355 370 368 365 371 363 356 356 353 340 330 307 308 319 320 331 320 323 341 359 386 381 370 347 328 316 316 316 318 321 310 296 321 332 352 364 369 377 382 381 388 384 383 396 397 400 381 372 379 379 368 364 340 315 299 299 302 304 296 277 298 320 330 351 366 376 378 383 391 395 407 412 411 414 405 399 402 407 421 430 427 435 431 419 417 433 434 436 433 432 425 421 428 432 431 436 426 423 435 432 429 429 431 434 434 422 412 423 436 442 453 451 457 453 450 457 457 465 474 477 482 487 490 496 500 508 506 510 520 537 541 559 564 569 580 577 592 592 595 611 615 618 633 639 644 648 656 663 673 683 697 708 711 717 714 709 706 717 727 728 725 727 720 709 717 736 746 763 762 747 756 766 774 776 783 800 807 812 805 792 774 754 734 709 704 682 644 626 628 635 654 666 688 700 716 717 719 711 709 714 726 725 737 760 778 799 785 780 805 798 815 850 851 843 827 814 828 830 827 832 831 831 844 852 856 870 889 897 895 898 896 901 915 922 937 946 954 966 974 989 994 1009 1010 1022 1041 1046 1057 1070 1076 1081 1097 1105 1116 1119 1127 1133 1136 1143 1147 1162 1168 1164 1172 1164 1170 1175 1175 1175 1175 1174 1173 1176 1170 1169 1172 1170 1170 1170 1168 1163 1136 1129 1126 1116 1121 1124 1123 1138 1121 1128 1130 1123 1130 1141 1148 1146 1142 1130 1129 1116 1111 1123 1113 1119 1128 1106 1099 1093 1069 1051 1039 1041 1047
390 385 391 389 378 383 377 377 377 368 344 332 330 341 346 349 357 353 352 346 339 335 321 313 304 292 297 307 303 322 334 355 376 389 395 366 357 353 329 308 303 303 298 292 290 308 335 347 342 360 367 377 377 371 374 372 370 387 395 394 380 370 367 359 345 324 315 297 288 290 283 268 294 306 325 339 354 357 361 369 373 379 396 400 408 406 405 402 396 396 404 412 416 418 420 424 422 407 425 430 426 430 428 423 418 415 427 421 418 421 420 423 426 424 427 429 430 428 405 416 424 431 434 448 446 445 442 435 440 452 457 469 470 477 483 485 478 486 484 504 508 515 524 533 543 554 559 561 569 573 578 590 597 610 611 625 633 649 653 654 658 665 679 685 701 706 706 710 703 709 712 722 728 732 725 709 694 703 733 746 746 752 734 756 770 772 774 780 784 801 812 820 806 786 766 747 730 702 674 659 630 622 628 651 665 675 691 701 703 714 712 698 700 702 725 749 767 772 774 761 764 772 787 808 819 843 832 814 809 823 819 821 814 823 843 853 861 874 883 889 902 916 909 913 915 930 938 945 961 964 969 975 978 987 992 1008 1013 1024 1044 1050 1053 1070 1079 1086 1097 1105 1115 1125 1134 1143 1153 1157 1164 1169 1169 1175 1178 1179 1180 1179 1177 1179 1178 1175 1176 1174 1169 1166 1164 1167 1167 1171 1170 1163 1143 1144 1146 1136 1143 1155 1151 1150 1144 1144 1147 1148 1160 1166 1160 1156 1157 1142 1142 1129 1138 1144 1139 1140 1133 1107 1089 1077 1063 1072 1072 1057
375 369 365 379 366 352 363 353 364 358 348 323 319 322 332 332 331 340 333 331 323 318 311 299 292 286 283 295 308 331 349 361 386 405 401 395 368 346 323 315 301 290 287 283 290 304 311 334 330 331 355 362 367 364 361 359 358 359 382 387 388 378 369 365 353 348 321 316 288 272 265 257 288 310 323 334 341 351 355 354 364 373 382 395 394 395 400 398 395 394 395 413 414 413 418 413 413 402 419 422 420 417 417 416 408 411 410 409 415 417 420 421 416 423 425 427 434 423 410 404 405 421 427 430 437 436 421 428 436 439 452 458 464 473 474 473 471 476 499 512 529 532 539 528 534 543 548 553 561 571 576 587 596 594 605 624 628 643 645 646 655 659 671 685 689 698 701 699 701 709 716 719 720 727 710 696 676 701 716 737 735 721 729 755 762 764 760 766 784 797 807 818 812 795 770 743 721 708 679 653 640 617 625 634 652 661 672 694 695 703 697 686 693 715 734 747 763 751 757 759 736 754 753 791 812 825 831 817 804 817 814 808 819 826 844 864 873 884 901 916 908 924 932 928 934 942 945 949 959 963 967 972 970 975 985 996 1000 1015 1019 1038 1047 1053 1067 1075 1083 1097 1106 1116 1132 1135 1150 1152 1154 1163 1163 1161 1170 1170 1168 1177 1176 1178 1170 1166 1171 1166 1162 1166 1161 1168 1170 1171 1174 1174 1173 1162 1163 1173 1160 1168 1173 1166 1174 1173 1167 1173 1174 1185 1188 1173 1173 1171 1155 1154 1168 1160 1164 1149 1130 1120 1092 1079 1087 1086 1082 1075
343 355 349 351 354 339 328 334 335 337 327 314 312 315 312 322 322 322 324 319 309 306 298 293 282 274 271 285 313 331 353 368 392 398 407 391 365 349 327 324 313 303 281 275 277 294 308 307 315 323 333 348 347 343 351 347 351 350 351 372 376 372 373 367 364 360 345 312 283 274 256 259 284 304 311 316 329 333 347 345 347 367 384 387 394 396 397 396 396 393 396 402 413 407 406 408 402 394 411 412 415 412 404 406 403 404 408 412 414 416 417 417 415 421 424 425 427 430 414 410 394 412 424 423 419 419 412 421 431 439 444 453 461 463 468 464 470 480 501 522 535 540 550 548 547 554 562 563 567 575 580 585 584 590 598 600 614 618 634 634 640 659 663 672 684 686 687 697 706 709 712 707 713 718 713 683 672 677 702 714 723 716 739 755 756 754 757 768 773 791 802 815 813 784 753 740 719 692 680 662 633 614 614 622 631 655 659 669 691 694 681 688 709 718 730 736 751 746 730 740 724 727 748 763 774 815 823 822 806 801 803 810 825 830 839 860 884 904 908 925 936 938 942 948 944 946 956 955 957 960 963 959 964 976 986 993 991 995 1011 1021 1036 1042 1050 1066 1073 1085 1103 1111 1126 1137 1137 1144 1145 1145 1156 1153 1150 1160 1160 1162 1167 1161 1156 1160 1157 1160 1154 1147 1156 1161 1161 1169 1171 1172 1176 1175 1175 1179 1179 1178 1178 1182 1185 1184 1188 1189 1194 1197 1199 1197 1187 1184 1175 1173 1178 1184 1173 1165 1137 1121 1106 1090 1094 1108 1084 1080
334 330 337 344 337 323 317 308 321 324 314 300 297 308 306 307 317 316 310 303 300 297 292 278 281 268 260 276 307 333 354 355 365 391 396 394 371 358 340 336 318 294 286 271 276 281 296 291 298 311 319 321 332 334 340 338 336 343 345 345 358 359 357 362 358 350 334 319 289 269 249 249 273 291 301 299 300 322 329 339 345 353 375 388 397 397 397 395 394 393 393 400 401 403 400 401 402 392 392 402 396 397 400 401 404 408 410 412 413 414 415 415 418 421 422 425 430 432 428 407 387 401 411 407 412 401 415 421 423 435 443 448 454 455 456 459 471 489 505 514 531 538 540 543 550 555 564 572 578 581 581 581 582 584 592 599 607 609 612 629 633 646 662 669 669 679 690 696 701 700 706 705 695 713 697 683 663 669 677 699 709 724 734 739 749 747 750 763 773 780 796 807 809 791 765 739 733 718 688 671 659 624 611 603 619 630 652 659 662 678 679 693 712 727 727 722 723 730 719 717 711 727 727 745 764 776 811 813 801 797 805 819 824 839 847 869 879 903 926 938 944 951 955 958 960 952 956 954 956 954 951 952 959 976 979 975 985 989 992 1010 1017 1020 1040 1054 1076 1084 1097 1115 1119 1123 1127 1131 1134 1136 1134 1143 1141 1137 1152 1151 1148 1150 1145 1145 1150 1141 1145 1137 1140 1153 1155 1156 1165 1164 1160 1165 1165 1175 1171 1168 1178 1180 1184 1189 1192 1197 1197 1199 1200 1204 1200 1190 1186 1189 1189 1191 1187 1166 1151 1145 1116 1107 1111 1118 1109 1092
326 323 327 340 336 318 307 297 303 317 303 294 286 292 290 297 306 310 306 291 294 294 292 275 262 256 256 284 314 325 325 346 371 375 390 395 391 373 361 336 325 303 280 271 264 278 274 279 291 296 308 311 310 330 332 322 326 332 332 341 338 347 347 342 345 340 331 315 291 278 251 241 263 279 279 285 287 304 326 323 332 353 376 387 396 399 396 395 395 394 393 392 396 398 399 396 383 386 397 407 398 399 405 401 403 406 406 409 410 410 414 416 419 425 428 432 436 441 433 413 388 385 396 396 391 407 412 418 423 425 435 444 440 448 448 464 473 479 498 514 519 527 525 531 542 544 553 572 574 569 577 582 584 595 605 605 614 621 618 623 633 649 653 663 664 674 684 689 692 697 698 692 690 694 702 670 655 658 671 686 704 714 708 732 731 749 757 762 773 787 797 804 811 799 778 763 737 713 703 678 656 641 620 604 600 616 626 648 649 653 680 700 706 723 715 694 707 709 701 696 693 720 721 722 748 772 776 805 792 811 811 821 830 847 852 866 885 902 920 941 954 956 966 967 965 962 950 942 943 951 942 941 952 963 973 968 969 981 988 992 1006 1022 1037 1051 1064 1084 1089 1099 1115 1113 1111 1120 1123 1117 1123 1124 1129 1128 1131 1140 1139 1134 1136 1133 1129 1132 1121 1119 1131 1136 1147 1145 1145 1153 1149 1149 1156 1155 1157 1160 1169 1180 1181 1188 1193 1196 1197 1198 1199 1202 1203 1198 1190 1192 1195 1196 1191 1186 1161 1143 1135 1119 1129 1126 1121 1108
313 294 313 314 312 300 291 287 294 302 301 282 269 280 281 284 298 300 297 276 273 286 280 270 257 248 257 277 302 313 320 334 363 364 369 388 379 358 357 344 320 307 284 263 260 261 271 279 287 293 299 306 304 302 319 306 301 320 318 320 330 330 338 336 332 328 319 315 289 265 254 238 256 268 267 265 286 295 303 318 334 340 370 384 398 400 398 396 395 393 392 388 383 391 379 386 387 408 412 414 416 413 412 413 410 411 412 414 418 418 419 423 426 429 436 441 445 444 431 412 391 384 375 382 391 406 413 416 418 423 433 438 440 455 463 473 480 484 489 497 510 502 513 522 521 535 542 551 560 564 586 589 590 597 603 608 615 622 629 630 632 641 651 655 658 668 675 683 687 687 694 690 678 688 690 675 648 641 660 675 690 698 698 704 726 737 760 771 779 782 796 808 814 805 780 751 742 728 703 690 671 654 634 613 597 597 617 616 623 653 664 691 697 704 711 690 677 696 688 662 690 699 710 714 736 757 754 766 789 814 828 828 831 846 860 871 881 901 923 936 952 962 972 972 967 958 953 939 934 933 937 934 939 957 957 963 964 966 981 991 1004 1018 1028 1040 1056 1066 1071 1092 1093 1104 1101 1098 1110 1109 1101 1112 1112 1111 1124 1126 1131 1121 1117 1121 1118 1108 1112 1109 1113 1126 1128 1138 1136 1134 1140 1145 1148 1152 1156 1166 1165 1169 1181 1184 1184 1192 1193 1193 1197 1199 1202 1202 1200 1201 1196 1198 1196 1185 1177 1155 1147 1146 1139 1153 1142 1120
306 279 277 298 301 287 270 261 281 299 290 281 265 262 272 271 278 293 290 271 265 269 272 257 244 245 256 281 290 290 318 342 343 352 361 375 376 352 330 335 320 307 278 265 256 257 266 277 282 286 297 300 289 291 296 298 291 292 304 306 300 317 321 322 324 317 311 304 294 265 244 230 242 243 247 257 263 288 296 307 326 339 351 371 387 399 401 396 392 390 393 386 364 362 368 388 410 413 423 421 422 423 418 420 419 416 418 421 420 424 423 425 432 436 440 441 442 433 419 410 393 382 373 377 399 408 411 415 414 422 431 444 452 460 473 484 485 484 487 490 487 491 501 509 507 514 533 530 551 580 581 581 585 590 597 603 611 622 625 631 640 646 649 655 652 657 669 675 685 682 684 683 677 671 678 661 652 632 645 670 677 681 696 705 720 737 760 769 783 793 798 809 817 799 792 777 748 733 728 703 687 667 648 623 592 589 593 614 622 630 658 668 684 691 692 681 670 669 663 652 668 689 683 701 714 718 736 760 791 822 829 839 838 851 858 875 897 904 923 936 951 955 960 965 962 954 949 939 931 927 925 929 932 935 947 950 957 964 971 983 996 1006 1019 1033 1041 1057 1059 1064 1080 1083 1092 1088 1089 1099 1091 1088 1100 1102 1108 1118 1111 1112 1104 1097 1106 1098 1093 1101 1103 1111 1124 1124 1115 1127 1130 1139 1138 1140 1151 1161 1160 1167 1171 1174 1181 1183 1188 1189 1192 1198 1200 1203 1207 1206 1202 1202 1203 1193 1186 1179 1162 1161 1168 1161 1153 1153
277 260 261 273 289 283 256 252 271 279 283 274 266 254 253 256 266 263 274 268 247 256 244 252 240 245 267 268 276 301 312 320 329 335 353 369 367 352 327 306 303 297 284 265 249 252 260 259 271 276 280 285 281 270 287 283 278 281 279 291 286 292 312 310 309 301 294 294 280 254 242 226 225 230 234 239 260 269 294 302 320 333 343 358 374 395 393 394 392 385 380 368 350 361 387 392 415 424 429 431 428 428 427 423 423 423 421 424 431 430 429 429 431 431 436 433 427 427 415 397 390 378 367 376 382 403 405 402 419 436 451 452 464 477 477 478 483 480 477 480 471 481 492 489 482 498 512 537 566 570 578 585 589 596 600 604 607 614 623 631 633 643 652 654 648 656 661 668 672 676 678 678 671 660 659 654 639 621 633 645 670 682 703 723 735 744 753 770 779 794 804 814 815 810 799 782 772 746 734 726 699 681 657 635 612 587 584 594 611 621 629 654 662 670 682 676 660 656 644 648 655 658 673 687 694 713 742 770 785 813 832 843 845 852 865 875 898 913 926 929 930 949 950 943 950 945 941 934 926 921 924 922 927 924 933 948 954 954 965 975 988 1000 1011 1028 1031 1037 1052 1055 1057 1071 1074 1073 1079 1078 1079 1078 1079 1096 1099 1103 1103 1093 1089 1087 1085 1086 1088 1084 1097 1100 1104 1110 1105 1107 1121 1123 1129 1132 1141 1150 1151 1152 1165 1167 1167 1179 1179 1185 1189 1189 1197 1200 1203 1206 1206 1207 1208 1210 1199 1193 1192 1178 1182 1183 1161 1165
267 242 252 263 273 267 240 234 264 272 266 273 260 242 240 233 256 251 249 253 240 236 232 235 246 251 251 262 269 286 309 310 309 324 345 362 367 345 321 308 286 278 266 260 248 244 250 250 255 271 270 266 272 263 269 269 254 268 266 263 276 279 285 296 300 289 277 266 258 249 225 222 225 247 240 241 244 265 279 287 312 328 337 351 369 389 382 379 386 379 356 343 349 363 391 414 425 426 430 432 433 433 431 432 429 427 426 427 435 435 428 426 424 424 422 427 423 416 410 394 380 371 366 360 372 378 392 418 439 441 454 462 474 475 473 475 476 476 469 462 462 473 468 476 476 503 530 541 558 557 560 578 585 589 599 603 606 610 611 625 633 637 647 651 644 650 654 655 663 664 660 668 662 654 647 629 630 617 630 636 654 674 706 716 742 762 769 774 790 799 802 802 798 800 799 793 767 753 737 716 700 688 668 644 619 596 580 588 589 608 624 635 649 657 655 663 641 642 633 647 648 665 678 698 718 741 743 773 801 820 827 842 850 854 863 883 893 907 912 918 915 912 932 928 929 939 930 919 921 915 911 918 911 919 928 930 945 947 952 963 976 984 1000 1007 1024 1029 1033 1047 1048 1050 1063 1062 1060 1068 1063 1070 1072 1079 1091 1095 1089 1090 1075 1072 1079 1073 1081 1076 1080 1092 1092 1091 1103 1103 1105 1116 1113 1121 1132 1133 1142 1149 1150 1160 1164 1166 1173 1177 1177 1182 1187 1197 1199 1203 1207 1207 1207 1211 1212 1213 1204 1207 1199 1196 1189 1180
236 232 236 260 259 250 237 235 245 264 253 255 256 246 230 224 230 238 236 235 233 226 236 244 263 280 262 272 266 282 288 302 301 312 339 363 355 343 316 297 294 292 271 270 271 249 242 236 246 253 259 257 252 256 264 258 246 248 246 255 256 273 274 275 291 273 260 253 237 227 216 224 243 257 271 255 248 250 272 290 295 318 335 351 359 361 366 365 358 353 338 331 349 375 401 411 423 430 431 434 435 434 434 433 433 430 426 431 438 437 429 425 422 420 418 415 417 410 406 388 382 374 355 353 370 396 420 426 436 441 454 457 464 469 468 462 466 460 457 457 449 463 456 458 485 498 519 535 534 536 550 556 573 580 587 600 603 606 612 613 619 633 639 647 646 637 648 647 646 651 651 651 648 634 640 622 607 614 631 645 664 672 690 717 730 763 776 784 789 793 790 794 790 781 789 780 757 733 711 705 687 682 678 657 631 590 578 580 583 593 611 622 628 643 638 624 619 619 623 652 666 676 694 714 722 740 748 774 783 797 826 833 848 856 864 877 882 884 901 894 889 897 898 913 912 921 924 913 906 907 900 902 911 910 915 920 921 939 939 951 964 972 980 1002 1004 1018 1027 1029 1038 1039 1037 1049 1051 1050 1054 1060 1076 1080 1080 1090 1080 1064 1067 1065 1061 1068 1068 1059 1076 1076 1081 1088 1091 1098 1098 1099 1107 1110 1112 1127 1128 1143 1142 1141 1153 1155 1155 1167 1169 1173 1182 1184 1195 1199 1200 1206 1205 1208 1211 1215 1219 1217 1223 1206 1201 1205
230 213 243 252 243 230 222 226 247 242 242 247 236 242 235 217 227 224 227 223 221 223 241 253 268 290 298 283 279 271 281 284 297 322 342 357 358 340 319 319 309 297 284 278 273 263 248 236 231 242 244 249 241 247 255 244 231 239 240 247 249 252 261 274 275 265 243 233 226 209 216 229 253 276 286 290 264 256 256 277 291 310 330 338 330 341 344 351 326 317 324 339 371 378 397 402 414 419 430 435 436 436 437 437 436 432 424 427 435 434 426 425 422 421 422 418 422 423 413 398 384 376 353 356 374 384 410 424 431 434 444 454 456 456 459 453 452 454 449 450 443 438 448 460 480 504 512 518 529 538 542 550 558 575 580 587 598 604 609 609 616 620 633 637 645 635 630 640 638 635 644 637 629 625 619 615 604 615 634 640 653 677 685 703 733 750 757 774 775 783 782 778 777 772 771 762 729 713 701 678 676 670 661 656 645 620 578 569 568 581 588 609 617 610 620 609 602 615 629 654 672 677 695 707 708 727 731 743 772 781 801 830 840 851 859 861 869 867 863 877 876 870 883 877 896 911 903 911 906 894 886 893 904 907 907 903 912 917 929 937 943 964 972 981 995 1000 1016 1019 1016 1027 1026 1027 1037 1039 1042 1064 1069 1068 1072 1075 1072 1055 1042 1056 1052 1054 1055 1053 1051 1062 1064 1079 1081 1078 1087 1088 1090 1100 1100 1105 1122 1123 1134 1133 1133 1142 1143 1146 1160 1167 1171 1180 1181 1181 1191 1195 1205 1207 1211 1213 1218 1223 1229 1229 1227 1222
211 207 228 240 233 214 210 220 236 235 223 237 229 224 226 216 210 215 214 217 221 238 250 264 274 304 312 311 287 277 293 286 299 317 335 352 358 353 345 328 317 295 290 302 281 278 269 246 232 226 235 233 230 236 229 234 226 226 235 242 236 242 249 257 263 253 237 220 207 204 212 232 258 263 277 299 300 272 264 263 280 299 318 330 321 317 327 325 318 326 353 351 376 376 385 389 399 418 424 431 433 434 435 433 427 434 424 422 429 428 426 426 428 425 431 431 427 427 415 404 384 362 344 351 373 398 421 428 439 440 439 447 453 451 450 450 447 446 444 444 426 430 444 464 479 488 509 508 513 531 549 559 560 570 579 584 596 604 607 605 610 619 623 631 633 629 621 624 628 625 624 625 612 610 610 594 606 611 620 640 648 664 687 703 711 737 741 749 764 754 772 771 763 764 753 745 724 699 687 668 650 656 649 644 645 626 614 578 563 563 579 590 606 598 585 599 613 633 646 643 639 663 669 677 691 697 721 730 755 778 808 821 834 844 845 855 852 855 851 845 858 851 848 859 878 879 890 890 895 889 868 889 894 896 897 887 892 908 911 928 933 946 966 970 977 1000 1006 1003 1007 1008 1017 1017 1012 1026 1032 1040 1060 1057 1055 1069 1050 1037 1032 1039 1046 1045 1037 1046 1044 1041 1058 1059 1057 1068 1071 1079 1080 1077 1094 1097 1098 1113 1106 1102 1121 1122 1134 1136 1139 1161 1163 1166 1174 1175 1176 1187 1195 1206 1208 1211 1217 1219 1224 1233 1238 1241
198 209 217 213 212 197 197 208 208 213 216 216 214 212 210 207 212 220 220 224 234 246 268 280 277 298 324 322 300 285 308 314 296 308 337 346 368 357 347 325 305 303 311 314 304 293 280 260 234 231 224 224 223 219 220 217 222 221 225 237 231 229 243 245 252 244 222 216 205 198 217 223 235 259 271 292 306 298 281 266 271 289 306 306 311 308 298 311 309 328 361 370 373 366 362 382 387 396 414 415 430 428 419 424 416 415 416 414 421 428 430 432 431 438 437 436 442 432 409 390 371 357 340 365 393 402 425 442 444 444 446 449 452 450 445 445 442 441 435 437 419 434 447 450 460 484 482 494 510 525 544 556 561 568 578 584 591 593 601 598 601 615 616 619 626 627 611 615 613 614 608 602 600 595 584 590 607 623 622 638 651 667 675 695 707 706 723 732 733 744 750 758 751 747 742 728 715 688 669 649 643 628 623 630 628 629 617 610 569 559 560 574 577 564 569 591 623 642 641 634 627 644 651 665 692 704 729 748 776 789 811 825 830 838 844 842 847 841 838 834 834 839 832 829 861 855 849 875 878 873 865 863 881 875 870 873 883 897 902 912 927 937 949 966 976 982 995 993 994 1000 1000 998 1002 1008 1024 1030 1034 1050 1050 1053 1046 1021 1013 1030 1030 1031 1029 1031 1033 1032 1036 1048 1046 1052 1062 1059 1065 1068 1074 1085 1085 1086 1093 1089 1089 1108 1113 1127 1128 1133 1155 1156 1157 1170 1174 1177 1189 1192 1195 1206 1212 1216 1218 1225 1237 1244
193 201 205 199 195 192 193 191 197 200 197 204 196 201 202 204 214 230 238 232 242 267 275 298 290 313 329 319 296 290 314 327 316 312 326 354 364 362 334 328 324 312 329 336 314 311 286 270 251 240 231 225 217 214 212 210 212 210 217 226 219 221 225 241 243 240 221 206 198 195 206 222 227 244 273 292 289 298 292 286 267 272 293 297 289 293 308 309 319 344 347 360 350 353 351 356 380 383 382 408 416 409 409 397 403 403 405 416 421 429 433 435 436 440 445 444 448 432 398 386 365 341 348 362 396 420 428 444 449 448 450 451 452 450 445 439 434 437 433 420 420 428 434 448 452 458 465 482 502 517 528 545 553 564 578 581 583 586 586 585 601 607 610 614 617 618 611 601 600 601 593 586 570 583 579 601 607 624 639 651 659 673 683 687 696 696 696 715 718 728 747 750 752 734 723 717 700 672 657 638 619 609 607 601 616 615 620 610 591 565 554 554 563 558 582 607 616 636 626 616 625 648 667 672 697 725 751 764 782 811 825 830 833 829 833 830 822 826 822 813 817 815 820 821 826 835 830 844 863 859 835 844 841 857 849 861 876 888 894 908 922 931 943 948 968 978 982 988 989 988 994 989 989 1001 1002 1017 1021 1024 1045 1044 1023 1015 1003 1010 1024 1015 1021 1022 1015 1021 1022 1021 1037 1039 1042 1050 1048 1048 1061 1060 1073 1069 1067 1082 1078 1085 1100 1099 1105 1123 1123 1140 1141 1143 1162 1167 1174 1181 1185 1189 1202 1202 1215 1220 1223 1238
185 190 183 179 184 183 188 187 188 190 191 193 202 206 212 221 229 222 235 239 238 259 275 300 307 321 342 338 309 298 326 336 331 337 336 350 369 355 346 339 337 336 335 343 334 317 291 282 270 267 244 234 231 213 208 206 207 206 208 220 209 217 221 223 235 230 212 204 197 191 199 213 230 249 261 279 267 268 292 291 276 273 275 285 291 304 317 315 319 335 332 333 339 334 344 345 351 366 384 396 407 393 385 390 389 394 395 407 422 426 426 434 435 436 446 452 448 438 416 392 361 345 341 366 384 418 439 447 450 451 451 450 447 446 438 434 429 421 414 414 404 423 427 438 451 446 455 479 493 502 521 536 554 557 565 578 577 576 580 588 592 602 601 612 613 613 604 597 587 591 578 568 563 581 587 604 618 633 642 659 668 679 680 682 675 686 680 690 708 711 723 743 744 741 721 702 691 667 643 621 613 599 590 587 590 605 602 602 601 588 560 550 549 563 570 580 605 605 600 616 639 645 666 687 711 724 749 780 794 819 834 826 827 817 806 813 809 795 806 800 790 797 790 809 813 799 816 827 826 840 827 796 814 821 836 854 878 876 894 923 934 940 953 959 967 979 975 974 984 981 983 977 982 983 992 992 997 1017 1026 1039 1019 996 994 999 1000 1001 996 998 999 1001 1008 1006 1012 1028 1028 1028 1036 1033 1033 1050 1050 1056 1058 1057 1070 1070 1076 1088 1091 1096 1110 1112 1127 1135 1142 1155 1161 1164 1173 1178 1180 1191 1193 1199 1214 1218
181 176 175 178 181 183 186 185 193 195 196 199 213 216 215 232 243 249 235 243 248 258 266 280 306 314 337 335 309 300 323 348 346 345 367 367 375 370 361 360 349 341 360 354 341 315 290 296 301 278 273 249 243 237 220 209 198 202 202 204 202 202 212 214 219 225 210 196 196 188 196 214 222 243 259 252 253 266 279 290 283 280 280 283 297 313 310 311 308 310 322 326 323 329 330 327 340 352 380 388 373 381 378 377 382 379 387 404 405 416 416 416 429 431 440 449 441 416 403 394 375 346 333 350 384 404 428 442 443 447 441 438 432 430 433 423 409 411 406 389 399 409 430 436 432 443 464 473 494 500 511 528 543 557 562 561 570 579 582 587 593 595 596 599 608 610 602 595 579 580 573 552 558 579 594 605 617 633 652 661 663 673 676 673 667 665 654 675 681 703 708 718 735 737 733 715 696 678 657 644 619 612 598 575 577 582 594 594 592 593 581 547 545 550 562 570 574 593 612 626 648 669 681 691 713 736 750 778 808 824 824 822 805 798 793 790 789 780 777 782 775 770 778 797 798 785 793 808 809 814 808 783 797 823 850 856 880 900 910 919 939 956 962 961 967 975 979 963 963 978 979 962 975 976 977 984 990 993 1014 1019 1016 992 977 984 989 980 983 982 973 988 989 995 998 1002 1015 1016 1009 1018 1018 1023 1034 1039 1039 1048 1046 1061 1062 1069 1084 1088 1093 1103 1114 1116 1129 1142 1154 1161 1166 1174 1176 1181 1190 1196 1199 1207
176 173 180 183 190 193 201 211 221 208 206 215 223 236 222 239 250 264 260 266 254 260 260 268 285 316 341 345 317 327 327 345 372 366 378 388 384 379 366 362 367 367 369 367 337 329 321 312 308 295 279 261 251 236 216 210 207 198 197 196 193 195 194 193 211 210 206 193 187 187 192 211 230 241 237 232 246 259 267 273 286 289 294 299 300 298 296 288 296 301 308 318 313 315 319 317 324 356 360 371 361 360 369 371 372 379 384 395 398 397 404 405 410 423 433 442 423 410 387 379 369 354 325 346 368 391 415 433 436 430 427 420 412 416 413 417 402 404 404 386 397 419 425 418 424 435 456 462 472 488 511 526 545 551 563 555 562 576 582 583 588 589 590 596 600 595 587 584 577 575 570 548 560 569 584 597 609 630 634 656 662 661 671 666 652 654 643 648 669 678 700 703 704 732 723 711 706 690 677 655 638 615 600 591 565 571 573 588 584 574 581 556 539 550 555 562 576 585 611 633 658 675 697 716 715 738 763 790 800 817 812 795 796 778 763 774 771 764 760 758 765 751 755 784 780 758 779 774 798 802 797 775 803 819 843 869 897 909 928 922 934 958 959 946 948 967 977 961 950 953 962 958 967 972 967 967 979 989 992 1010 997 976 970 954 976 965 966 976 960 962 980 980 978 990 989 1002 996 995 1005 1012 1017 1033 1034 1032 1040 1042 1055 1059 1071 1087 1089 1090 1108 1113 1117 1134 1146 1159 1159 1161 1174 1180 1183 1194 1198 1200
166 172 189 196 196 202 218 222 236 234 216 217 239 244 242 236 258 285 270 278 272 274 277 274 299 312 338 348 341 343 345 371 379 387 386 376 373 369 351 346 360 364 366 372 350 335 327 304 292 275 266 253 238 239 230 238 217 209 193 189 187 185 187 186 189 207 192 188 186 181 203 216 239 242 216 216 242 240 255 262 277 294 289 283 285 285 282 279 277 278 295 293 307 306 302 312 319 327 345 344 347 354 360 370 374 377 389 390 388 391 391 390 403 414 433 437 418 393 381 360 353 325 316 338 364 382 407 415 426 424 410 408 397 391 397 388 397 396 388 384 390 395 410 410 422 434 437 448 470 491 513 524 540 557 562 557 560 567 576 578 577 582 580 583 594 589 572 573 570 568 558 537 555 564 579 596 600 608 629 634 645 658 660 667 655 639 639 633 646 668 674 675 693 700 717 704 688 690 680 668 643 635 617 588 576 558 566 564 579 569 549 540 535 544 564 572 583 600 621 626 649 670 694 718 735 750 760 784 788 795 806 783 762 765 748 742 763 757 748 748 749 737 754 759 769 744 746 763 767 776 778 764 797 823 841 865 885 909 929 942 947 960 953 940 957 964 971 962 941 941 940 949 958 962 962 961 964 981 985 987 993 973 950 940 942 952 955 954 951 956 962 971 966 964 976 977 986 977 976 996 1003 1012 1028 1023 1024 1034 1033 1044 1061 1060 1080 1085 1089 1105 1115 1122 1138 1136 1134 1151 1155 1170 1177 1180 1193 1200
170 178 188 208 212 207 218 242 247 249 238 227 240 257 255 260 265 292 297 290 284 305 295 299 310 333 350 361 360 373 359 375 386 378 372 360 361 358 347 339 347 356 360 363 352 325 304 285 274 265 253 255 251 258 263 252 246 226 203 201 186 183 181 181 184 187 188 182 179 179 205 231 243 238 210 222 228 230 237 253 269 281 272 269 264 276 271 268 271 275 285 289 289 296 299 299 310 320 318 333 341 353 357 369 373 374 372 384 382 382 385 385 390 405 416 429 423 405 373 353 340 321 315 327 356 378 399 400 410 413 397 389 384 378 376 377 376 384 380 380 387 391 402 409 418 424 437 451 468 487 503 527 532 547 562 548 541 559 564 565 571 570 572 574 577 575 558 557 557 547 544 533 546 565 571 579 594 600 609 627 638 641 650 656 657 638 622 625 632 638 665 658 661 685 690 699 678 662 666 664 662 634 623 593 565 546 554 553 554 554 541 529 534 540 560 582 604 610 629 649 653 674 692 722 731 739 755 754 755 782 779 777 751 728 724 724 740 740 727 719 732 716 738 744 723 727 727 726 753 758 758 768 800 814 837 859 875 904 932 952 954 955 941 936 951 954 964 965 953 933 932 935 938 956 957 953 959 965 977 978 974 961 949 927 927 925 923 938 936 949 953 944 955 952 952 963 961 950 965 971 988 995 1007 1014 1013 1015 1029 1031 1040 1052 1059 1077 1083 1091 1105 1107 1109 1121 1123 1127 1145 1151 1167 1173 1181 1193
176 189 201 211 223 231 222 242 268 260 256 252 259 286 288 267 296 298 318 326 307 320 336 327 334 348 363 380 371 385 389 384 380 368 360 355 340 345 329 333 340 344 353 356 340 307 295 283 274 275 262 273 273 269 274 268 247 238 221 206 199 188 179 175 177 183 176 179 176 186 217 222 236 222 196 211 217 215 231 243 264 265 254 258 251 257 265 263 266 271 281 281 287 287 294 294 297 306 321 342 347 350 358 366 363 353 364 367 375 374 373 381 384 391 406 414 412 399 387 359 332 319 310 335 345 365 366 379 403 400 393 377 372 372 363 350 363 368 388 386 412 406 420 420 415 422 438 451 469 483 492 508 532 548 550 553 536 537 556 561 561 564 560 566 566 561 550 546 543 535 528 537 539 555 566 571 584 597 609 612 626 634 635 646 648 634 625 600 621 629 635 646 651 654 677 679 653 648 643 653 654 644 614 594 586 554 537 534 545 538 527 525 535 550 575 587 607 630 640 656 676 689 693 705 725 726 725 736 751 759 767 746 734 722 695 715 726 727 711 713 722 704 712 722 709 699 712 719 733 745 759 770 801 829 846 865 886 917 931 955 963 956 953 931 931 939 955 964 952 945 933 923 925 933 946 946 952 957 955 967 965 956 941 929 910 910 909 909 925 934 944 933 930 942 941 940 941 936 940 958 963 980 993 996 1005 1005 1010 1025 1029 1034 1053 1060 1063 1081 1083 1096 1098 1103 1115 1117 1120 1145 1150 1154 1171 1179
192 207 209 225 237 237 253 254 270 294 272 274 278 294 308 307 303 332 340 342 343 343 351 356 355 366 374 384 382 390 390 378 365 361 348 344 327 324 326 319 330 334 330 346 343 329 298 299 303 287 287 295 282 284 270 261 240 225 215 196 189 186 184 174 172 178 174 172 175 186 201 210 218 213 192 195 205 208 226 250 259 249 238 232 238 254 258 261 261 267 275 277 280 285 286 284 288 306 321 335 340 347 354 353 353 347 353 362 358 366 367 369 378 383 396 405 403 396 371 358 333 307 310 328 334 339 363 376 381 386 381 373 364 357 353 354 383 376 402 417 428 435 431 438 448 433 434 449 465 477 490 518 528 544 537 536 541 528 543 555 556 552 554 556 551 546 539 536 522 521 525 540 554 562 577 589 594 598 605 606 607 620 628 631 640 634 615 588 589 611 622 622 638 644 649 669 649 621 628 622 640 623 613 598 581 566 548 533 524 530 519 531 550 561 579 603 614 632 652 672 680 682 689 694 697 713 708 709 739 744 730 739 712 687 685 684 722 706 691 701 708 679 699 701 688 702 735 743 755 763 764 788 800 825 850 875 890 915 941 947 943 950 949 938 927 934 950 960 965 951 943 926 916 923 926 937 944 940 945 944 954 952 948 927 905 896 896 899 907 924 923 913 916 922 927 927 918 923 928 931 951 956 962 982 990 995 998 1007 1025 1031 1033 1049 1061 1059 1072 1075 1091 1093 1095 1108 1113 1122 1141 1149 1151 1167
198 222 228 230 254 265 266 271 288 309 307 293 303 312 322 325 335 336 339 335 344 345 353 354 357 369 378 370 374 367 365 373 357 347 337 335 324 308 301 309 307 311 319 332 338 334 332 319 317 309 298 307 288 284 258 243 232 211 200 198 202 195 189 180 171 170 171 170 171 190 190 188 208 194 181 183 196 213 223 234 248 240 228 228 242 244 252 254 258 260 258 270 270 278 282 275 281 299 309 326 332 342 343 342 339 343 349 350 353 354 361 362 363 383 389 388 391 390 382 349 325 311 304 315 327 337 358 371 368 359 362 352 348 347 341 356 379 391 414 420 433 448 457 462 461 456 448 449 465 478 489 510 534 538 522 527 526 520 534 539 544 543 543 554 551 538 520 508 515 520 529 538 554 567 583 586 586 592 593 601 601 601 615 621 630 623 611 591 580 586 607 617 620 631 636 641 650 617 595 608 608 601 589 567 570 559 542 542 524 515 521 529 542 571 582 606 627 646 655 669 670 666 664 665 686 689 695 710 719 730 714 708 708 683 657 682 695 693 667 682 694 670 680 687 688 723 755 768 776 787 793 799 821 853 858 881 905 929 928 933 928 928 943 926 916 931 941 942 958 961 952 924 919 911 913 918 931 933 928 935 934 934 945 935 907 890 886 892 903 909 915 908 890 910 905 914 902 899 914 924 925 941 947 953 974 978 989 999 1002 1020 1030 1036 1050 1050 1056 1068 1072 1085 1086 1088 1100 1116 1118 1138 1143 1148
215 232 244 259 259 279 296 290 295 319 321 323 318 332 342 336 336 332 334 328 331 338 338 348 358 368 376 364 357 360 354 352 348 341 326 323 322 312 293 284 294 302 323 335 336 329 329 330 325 320 321 314 282 258 254 230 214 205 208 207 219 220 196 180 171 167 167 167 171 172 181 181 180 187 170 181 195 210 212 223 231 225 210 219 234 243 245 247 246 243 250 250 267 274 275 270 281 285 296 308 316 331 320 333 330 337 345 344 345 349 348 346 357 371 384 381 380 386 376 364 330 306 294 307 318 344 351 347 353 340 333 340 329 326 339 351 372 379 397 419 430 435 455 471 479 468 477 464 467 484 498 509 530 531 516 509 515 511 529 530 531 535 535 542 538 529 518 500 514 516 528 544 559 565 577 576 577 575 587 592 589 593 599 616 620 621 606 596 572 577 590 591 611 610 624 626 626 599 588 577 589 581 568 561 534 546 531 518 517 512 523 538 546 561 587 603 622 638 651 658 657 648 652 651 656 673 683 700 707 699 701 692 686 663 649 660 681 665 657 661 652 659 665 683 708 723 751 780 795 817 816 842 835 860 885 901 911 914 911 907 904 923 935 926 908 916 931 930 938 957 960 949 921 902 905 910 912 923 920 919 923 924 937 925 912 891 877 880 894 899 895 889 879 885 886 881 875 891 901 911 911 916 932 938 945 968 967 974 990 997 1017 1027 1029 1044 1048 1052 1065 1065 1065 1078 1079 1105 1113 1121 1135 1140
238 262 272 270 286 299 308 322 317 328 347 339 340 337 335 327 330 323 316 322 323 320 332 346 354 363 367 361 351 338 347 349 337 333 326 311 319 311 303 284 285 311 317 328 332 325 326 336 340 333 326 287 279 251 231 217 217 224 224 224 230 222 200 186 173 166 165 165 164 168 166 170 167 161 165 175 193 202 200 210 217 208 203 215 224 236 242 238 239 237 237 245 249 267 263 258 274 278 289 301 301 303 313 316 325 330 330 337 338 337 341 340 350 364 369 373 370 368 375 358 334 313 290 299 309 325 338 329 324 329 318 315 320 341 357 346 355 367 389 394 418 432 441 466 483 496 489 493 491 481 503 521 539 543 526 511 490 501 517 516 522 522 529 532 522 520 494 482 507 519 532 541 558 575 571 564 568 567 569 586 578 582 594 601 612 612 611 590 569 559 575 584 588 599 599 615 617 586 572 563 560 574 549 544 528 508 511 507 505 511 522 546 565 581 587 598 619 635 643 633 642 639 629 640 642 646 672 680 681 690 669 676 675 658 637 657 652 653 637 640 652 670 681 696 728 740 754 786 804 829 842 850 874 882 892 908 913 906 891 893 901 908 927 922 910 905 912 925 925 941 961 952 943 910 897 892 899 902 910 912 903 920 927 933 909 889 881 865 864 883 881 873 865 868 862 863 863 867 891 889 899 900 906 925 929 938 960 972 974 989 1003 1017 1020 1024 1039 1041 1044 1055 1056 1057 1071 1088 1103 1112 1120 1134
241 265 295 307 298 327 331 337 338 343 335 332 334 326 324 320 312 314 311 308 314 316 324 342 343 343 357 347 338 329 326 339 332 325 315 300 301 302 287 274 276 296 315 324 325 317 322 325 338 336 326 293 268 242 239 237 232 236 252 239 248 229 212 195 174 168 161 160 159 160 161 156 159 155 156 170 180 175 194 204 211 193 194 207 219 227 236 234 228 227 235 237 247 253 252 259 262 270 279 278 291 290 297 304 305 306 317 320 331 330 326 336 346 358 361 358 353 359 356 355 333 306 288 295 300 313 308 301 307 304 309 327 338 347 367 361 365 368 379 389 396 423 441 462 478 502 516 504 504 505 511 523 542 543 521 516 490 486 505 508 506 513 506 522 501 497 487 477 501 516 534 553 563 565 568 557 554 559 565 569 573 575 585 594 592 593 603 595 575 554 546 570 578 579 589 590 591 569 559 555 547 546 543 523 498 496 495 507 505 519 535 561 573 591 606 620 624 630 618 623 614 620 620 623 630 645 650 670 670 667 663 644 660 644 629 644 632 627 635 656 680 680 697 712 723 747 773 798 810 831 856 878 878 894 893 903 896 892 875 873 897 908 907 913 901 885 898 909 931 950 951 962 946 937 909 897 882 888 886 901 896 898 922 923 917 897 880 862 849 845 863 859 846 853 842 837 851 859 862 878 878 888 891 899 919 929 937 967 969 971 994 1001 1006 1014 1015 1029 1031 1034 1046 1047 1050 1078 1089 1100 1112 1115
258 295 305 317 315 325 325 332 325 321 326 318 314 318 317 309 309 303 304 301 302 318 326 325 331 332 334 346 323 308 315 317 322 310 302 295 291 277 277 260 274 286 305 322 311 304 313 316 319 336 325 309 281 274 254 255 269 256 276 276 263 248 226 205 195 168 163 158 156 156 154 153 150 149 151 154 166 168 189 204 194 185 189 202 203 220 218 220 218 209 232 233 233 247 241 247 256 258 270 268 274 289 293 298 301 303 305 312 313 321 319 330 348 352 350 349 347 347 348 335 333 306 283 293 296 290 295 298 312 319 340 342 346 365 377 373 365 381 388 404 406 426 434 456 484 501 519 524 517 518 520 534 545 538 515 492 492 474 476 492 495 504 498 494 482 481 464 475 502 519 543 550 557 562 560 554 549 550 558 563 558 568 576 578 582 583 589 592 583 561 539 547 564 566 574 584 583 560 544 538 540 534 525 512 491 498 499 517 532 538 547 563 587 603 610 623 629 623 607 597 598 593 599 611 608 631 643 650 660 658 643 629 629 628 616 619 620 640 662 665 689 711 710 729 741 753 765 796 819 843 858 880 879 884 883 889 883 875 868 877 886 906 900 890 893 880 900 919 928 941 938 946 957 943 934 912 894 875 876 878 878 889 894 911 904 886 879 870 851 832 831 828 827 821 832 828 828 844 850 857 865 864 870 890 893 916 941 947 962 966 974 989 995 996 1005 1005 1019 1024 1026 1036 1047 1064 1081 1094 1101 1108
269 290 291 302 301 299 318 322 309 304 301 308 298 293 306 302 296 296 292 287 305 307 315 314 307 322 323 324 321 300 295 304 304 304 289 276 282 272 254 253 269 283 304 302 299 290 287 303 311 317 329 321 314 300 301 285 294 293 289 283 267 263 243 236 213 194 166 156 155 151 149 147 147 144 143 148 156 177 183 179 185 168 172 191 195 191 205 201 201 201 210 226 225 233 243 245 244 250 257 267 269 284 295 298 298 302 302 302 305 305 312 324 336 343 338 336 340 338 336 329 318 299 283 285 292 288 301 318 335 344 353 366 359 364 383 381 377 379 393 414 424 434 457 471 488 504 518 516 517 529 537 543 546 528 518 494 482 464 464 465 490 493 485 480 460 451 465 490 511 517 536 552 556 559 555 549 544 546 551 557 552 561 569 569 571 577 579 585 574 550 535 531 536 556 559 567 570 563 533 529 524 514 518 487 485 507 533 538 546 561 568 588 597 610 621 625 622 606 589 584 576 579 586 589 602 610 631 640 639 643 636 617 617 615 602 611 634 646 668 690 697 719 739 747 754 763 781 804 813 840 862 873 866 866 880 881 872 861 854 864 886 895 896 886 869 887 896 907 923 918 925 946 964 956 944 927 907 888 866 866 869 869 882 878 897 885 869 870 861 831 819 812 805 807 808 819 815 819 837 847 843 853 857 863 888 898 927 942 948 957 963 967 982 983 986 996 996 1000 1017 1018 1035 1056 1070 1085 1093 1097
269 280 277 271 284 289 304 316 312 301 292 290 288 281 288 291 289 277 281 280 285 292 291 302 292 292 307 317 299 284 279 277 292 289 283 272 264 263 248 244 265 273 281 284 278 282 279 286 300 306 306 319 316 309 310 304 293 287 269 270 259 241 250 246 232 199 190 178 164 164 150 153 154 144 140 142 152 159 154 161 158 162 161 160 178 177 176 188 181 183 206 214 219 235 238 242 237 245 251 259 269 281 284 294 297 297 300 300 298 302 305 318 332 328 328 323 326 334 329 317 315 303 284 280 281 291 307 316 335 348 360 371 371 373 378 397 384 390 390 408 428 440 468 487 485 496 499 503 509 515 535 550 554 536 519 507 493 475 450 455 464 477 466 461 454 448 464 480 497 521 534 543 553 549 545 548 542 541 545 545 546 555 558 561 561 557 572 578 573 548 516 506 523 529 549 552 545 551 517 503 515 498 495 485 491 514 527 557 571 590 602 600 615 618 613 599 604 594 578 569 568 559 577 582 587 601 612 633 631 615 618 609 594 598 607 618 637 657 669 694 718 738 749 767 771 782 790 808 830 841 856 847 853 860 877 875 869 854 848 866 874 892 879 869 863 873 892 894 900 916 936 945 963 961 949 930 908 884 873 848 861 860 861 866 872 880 868 858 852 841 816 792 789 783 797 798 794 806 819 836 833 832 850 851 866 892 906 909 932 936 952 956 955 972 974 976 987 992 996 1009 1028 1048 1063 1070 1086 1091
